ply
format ascii 1.0
element vertex 1326
property float x
property float y
property float z
property uchar diffuse_red
property uchar diffuse_green
property uchar diffuse_blue
end_header
-1.133833 1.018754 2.089598 0 0 0
-6.065432 -1.158611 9.832400 0 0 0
-6.065432 -1.158611 9.832400 0 0 0
-1.363004 0.895249 2.517991 0 0 0
-1.617577 0.855772 3.247931 0 0 0
-4.665196 2.052178 9.227015 0 0 0
-4.310142 1.864192 9.041184 0 0 0
-1.842118 -1.150988 8.614793 0 0 0
-1.842118 -1.150988 8.614793 0 0 0
-1.740984 0.070297 8.126481 0 0 0
-1.765062 -1.820760 8.771741 0 0 0
-1.713488 -1.831569 8.790409 0 0 0
-1.639799 -1.712406 8.654635 0 0 0
-1.548660 -0.817789 8.227792 0 0 0
-1.386216 -0.773920 8.094638 0 0 0
-1.589772 -2.079212 9.377697 0 0 0
-1.301051 -1.506763 7.986496 0 0 0
-1.226813 -1.616996 7.959474 0 0 0
-1.221722 0.120987 8.018989 0 0 0
-1.167986 -0.816140 8.115743 0 0 0
-1.595016 -2.901572 12.844911 0 0 0
-1.028797 -0.299343 7.874555 0 0 0
-0.992260 -0.351562 7.895319 0 0 0
-0.862159 -0.085267 8.132010 0 0 0
-0.831475 -1.440616 7.939526 0 0 0
-0.774679 -2.339501 7.752026 0 0 0
-0.638240 -1.745142 7.464463 0 0 0
-0.626551 -1.023561 7.326349 0 0 0
-0.590419 -1.657893 7.453597 0 0 0
-0.590419 -1.657893 7.453597 0 0 0
-0.569528 -1.684430 7.441755 0 0 0
-0.569528 -1.684430 7.441755 0 0 0
-0.538153 -2.217097 7.520120 0 0 0
-0.458709 -1.050693 7.314797 0 0 0
-0.402302 -0.141786 7.685002 0 0 0
-0.389520 0.004591 7.541603 0 0 0
-0.369136 -0.557142 7.166907 0 0 0
-0.360999 -0.308615 7.307727 0 0 0
-0.373799 -0.066727 7.609702 0 0 0
-0.294921 -1.992280 7.349058 0 0 0
-0.138136 0.289550 7.445369 0 0 0
-0.127313 -0.046637 7.552256 0 0 0
0.267753 0.408343 2.605770 0 0 0
-0.096291 0.047486 7.499747 0 0 0
-0.077914 -2.042743 7.471075 0 0 0
-0.059322 -1.551196 7.635086 0 0 0
-0.012799 -0.004169 7.536436 0 0 0
-0.012799 -0.004169 7.536436 0 0 0
0.084808 -0.833297 7.277382 0 0 0
0.145380 -1.749531 8.018985 0 0 0
0.401511 -1.580294 7.139747 0 0 0
0.204806 -0.793050 7.355333 0 0 0
0.134092 -1.790811 8.605883 0 0 0
0.487785 -1.380636 8.008585 0 0 0
-7.242848 6.363841 -67.016097 0 0 0
0.529295 -0.828204 8.008541 0 0 0
0.548374 -0.854115 8.004932 0 0 0
0.164960 0.576007 1.789332 0 0 0
0.755375 -0.303225 7.238286 0 0 0
0.872346 0.740572 7.481510 0 0 0
0.777011 2.403910 6.647153 0 0 0
0.889529 -0.039790 7.105106 0 0 0
0.963145 -0.260174 7.158451 0 0 0
0.913142 2.427486 6.591501 0 0 0
1.034410 -0.008077 7.131630 0 0 0
1.021004 1.923496 6.975091 0 0 0
0.950089 2.602596 6.459315 0 0 0
0.950089 2.602596 6.459315 0 0 0
0.998420 2.207281 6.748688 0 0 0
0.998420 2.207281 6.748688 0 0 0
1.076687 0.164167 7.176992 0 0 0
1.095756 0.313900 7.244308 0 0 0
1.090729 0.071127 7.143791 0 0 0
-0.054182 0.263066 2.223769 0 0 0
1.102644 2.048987 6.881928 0 0 0
3.341826 1.704838 10.277285 0 0 0
1.357964 -1.122622 8.376084 0 0 0
1.408182 -1.568423 8.553379 0 0 0
1.188429 1.875764 6.958075 0 0 0
1.206202 1.823647 7.023426 0 0 0
1.181336 2.172135 6.758089 0 0 0
1.335411 1.673163 7.166385 0 0 0
1.263046 2.141615 6.772040 0 0 0
1.284695 2.086073 6.837368 0 0 0
1.236064 2.407100 6.582041 0 0 0
1.309323 2.040681 6.887024 0 0 0
1.359229 1.734524 7.095722 0 0 0
1.383164 1.720038 7.084012 0 0 0
1.353659 1.958201 6.936342 0 0 0
1.420953 1.898694 6.961942 0 0 0
1.471665 1.805518 7.188615 0 0 0
1.602598 -0.450135 7.801985 0 0 0
1.417554 2.005352 6.885894 0 0 0
1.684575 -0.841922 8.058297 0 0 0
1.426051 2.073427 6.830140 0 0 0
1.464358 2.132270 6.793339 0 0 0
1.552388 1.714494 7.089291 0 0 0
0.251147 0.279865 1.684194 0 0 0
1.808580 -0.733047 7.955673 0 0 0
-19.199965 -14.628188 -78.898096 0 0 0
1.713509 1.985712 6.859435 0 0 0
1.860251 1.695298 7.116942 0 0 0
1.773585 2.241529 6.690441 0 0 0
1.773585 2.241529 6.690441 0 0 0
1.854927 2.034290 6.855756 0 0 0
1.854927 2.034290 6.855756 0 0 0
2.042323 1.237974 7.519298 0 0 0
1.851630 2.244247 6.676201 0 0 0
2.051855 1.338056 7.349349 0 0 0
1.929204 2.191175 6.682317 0 0 0
2.041809 1.795697 6.988609 0 0 0
2.129525 1.595964 7.159993 0 0 0
2.094419 1.838265 6.962068 0 0 0
1.946813 2.606181 6.383042 0 0 0
1.946813 2.606181 6.383042 0 0 0
2.208077 1.509441 7.199621 0 0 0
2.287530 1.216542 7.419492 0 0 0
2.198049 2.003799 6.846702 0 0 0
2.038075 2.690705 6.331956 0 0 0
1.244394 0.775637 6.382565 0 0 0
2.297473 1.979160 6.838961 0 0 0
2.534791 1.193233 7.434438 0 0 0
2.320658 2.191188 6.712904 0 0 0
2.314976 2.216754 6.701924 0 0 0
2.474760 1.596669 7.136109 0 0 0
2.362896 2.109358 6.725784 0 0 0
-1.093473 -0.276175 -3.165303 0 0 0
2.499763 1.744008 7.012533 0 0 0
2.404215 2.150457 6.711708 0 0 0
2.772603 0.801962 7.723336 0 0 0
2.410453 2.421651 6.491987 0 0 0
2.879210 0.767511 7.712911 0 0 0
2.558120 1.987854 6.807226 0 0 0
2.568929 2.186346 6.674263 0 0 0
2.892831 1.164296 7.404295 0 0 0
3.000282 0.840512 7.666879 0 0 0
2.951865 1.046342 7.500079 0 0 0
2.619274 2.216013 6.650856 0 0 0
2.603724 2.320052 6.541286 0 0 0
2.958288 1.269291 7.333628 0 0 0
2.838483 1.730001 6.997203 0 0 0
2.941492 1.523942 7.163539 0 0 0
2.941492 1.523942 7.163539 0 0 0
3.111592 1.038070 7.514812 0 0 0
3.046278 1.247854 7.327720 0 0 0
3.094163 -1.084571 6.874966 0 0 0
3.376173 0.576233 7.815653 0 0 0
3.505310 0.381902 7.982296 0 0 0
3.394255 0.762771 7.659727 0 0 0
3.477600 0.698208 7.695880 0 0 0
3.314668 1.335665 7.227144 0 0 0
3.139221 1.935927 6.798665 0 0 0
3.139221 1.935927 6.798665 0 0 0
3.556978 0.851368 7.654343 0 0 0
-23.507273 -16.814553 -54.068226 0 0 0
3.188351 1.935918 6.826151 0 0 0
3.188351 1.935918 6.826151 0 0 0
3.211708 1.894723 6.841950 0 0 0
3.234444 1.869491 6.840845 0 0 0
3.541671 1.167220 7.399072 0 0 0
3.763611 0.611003 7.738849 0 0 0
3.407848 1.655668 7.014464 0 0 0
3.865486 0.155227 7.934294 0 0 0
3.969809 0.055299 8.069220 0 0 0
4.450520 2.235167 8.944577 0 0 0
3.676161 1.181659 7.313661 0 0 0
3.779972 1.117905 7.335787 0 0 0
4.183396 0.146275 8.089082 0 0 0
-1.170801 0.158446 -2.797761 0 0 0
4.249786 0.096603 8.070868 0 0 0
3.845133 1.263212 7.291539 0 0 0
3.834712 1.512494 7.091632 0 0 0
4.095939 0.934728 7.479388 0 0 0
4.294026 0.433817 7.815129 0 0 0
3.691167 2.022947 6.719860 0 0 0
3.691167 2.022947 6.719860 0 0 0
3.997704 1.262156 7.251277 0 0 0
-0.423669 0.418151 -0.863036 0 0 0
4.052461 1.255864 7.257743 0 0 0
4.052461 1.255864 7.257743 0 0 0
4.156118 1.057494 7.424769 0 0 0
4.156118 1.057494 7.424769 0 0 0
3.891380 1.751360 6.898964 0 0 0
4.109822 1.292741 7.262716 0 0 0
4.369594 0.625600 7.703245 0 0 0
4.016023 1.584242 7.022778 0 0 0
3.997639 1.662696 6.957036 0 0 0
4.364665 0.774018 7.589306 0 0 0
3.898722 1.918155 6.762526 0 0 0
4.040050 1.618310 6.996997 0 0 0
4.150024 1.332910 7.173296 0 0 0
4.224021 1.196125 7.287737 0 0 0
4.158586 1.372020 7.173895 0 0 0
4.424545 0.695391 7.624107 0 0 0
4.159873 1.433437 7.114995 0 0 0
4.379533 0.866570 7.478894 0 0 0
4.122660 1.553877 7.040384 0 0 0
4.430497 0.935068 7.504883 0 0 0
4.178362 1.613872 6.974599 0 0 0
4.487818 0.945215 7.468391 0 0 0
4.785431 0.275281 7.873662 0 0 0
4.491606 1.127229 7.321507 0 0 0
4.706638 0.704289 7.589735 0 0 0
4.471194 1.245922 7.213221 0 0 0
4.517050 1.208679 7.230577 0 0 0
4.532334 1.156283 7.240037 0 0 0
-3.126623 -0.346024 -4.734028 0 0 0
4.660572 0.952944 7.414412 0 0 0
4.628495 1.136774 7.294790 0 0 0
3.990845 1.103946 6.774075 0 0 0
4.290815 1.970572 6.706721 0 0 0
4.549359 1.420804 7.071496 0 0 0
4.469026 1.754000 6.867679 0 0 0
4.784837 1.084326 7.325647 0 0 0
4.639102 1.486831 7.026351 0 0 0
5.128726 0.515028 7.687111 0 0 0
5.109284 0.635196 7.639473 0 0 0
-5.616444 0.420138 8.497789 0 0 0
-5.616444 0.420138 8.497789 0 0 0
-6.419286 2.448849 10.353219 0 0 0
-1.173017 1.073686 2.338676 0 0 0
-5.165560 -1.138844 9.691597 0 0 0
-5.334657 -1.600122 10.076651 0 0 0
-8.333200 3.552847 16.848071 0 0 0
-4.655454 -0.890955 9.543375 0 0 0
-1.579974 2.577130 7.671204 0 0 0
-2.713728 -2.247475 10.870326 0 0 0
-1.840419 0.078675 8.395587 0 0 0
-0.504818 -0.310859 2.939131 0 0 0
-1.764720 -1.916228 8.830439 0 0 0
-1.571688 -0.572417 8.006166 0 0 0
-1.344001 -1.257848 7.992664 0 0 0
-1.254969 -1.196317 7.971855 0 0 0
-1.227303 -1.455858 7.920860 0 0 0
-1.227303 -1.455858 7.920860 0 0 0
-1.206474 -0.858324 8.189331 0 0 0
-1.089499 -1.753865 8.074705 0 0 0
-0.960572 -1.147175 8.010350 0 0 0
-0.808786 -2.306534 7.742180 0 0 0
-0.646486 -1.546497 7.572623 0 0 0
-0.634903 -2.403441 7.714134 0 0 0
-0.616162 -2.235981 7.572180 0 0 0
-0.604431 -2.027088 7.467580 0 0 0
-0.458683 -2.038020 7.362608 0 0 0
-0.338870 -1.170501 7.376459 0 0 0
-0.330338 -2.003083 7.329704 0 0 0
-0.281738 -0.009971 7.510474 0 0 0
-0.269150 -0.525124 7.151272 0 0 0
-0.242362 -0.902842 7.190446 0 0 0
-0.150490 -0.251892 7.848323 0 0 0
-0.106603 -0.722409 7.137598 0 0 0
-0.077332 -2.113146 7.491804 0 0 0
0.098564 -1.417088 7.953434 0 0 0
-0.024073 -1.651287 7.560099 0 0 0
-0.002855 -1.988785 7.510890 0 0 0
-0.002855 -1.988785 7.510890 0 0 0
0.159905 2.467149 6.611686 0 0 0
0.331892 -1.601183 7.954922 0 0 0
0.566521 -0.894985 8.054324 0 0 0
0.566521 -0.894985 8.054324 0 0 0
-12.750760 -6.071875 -56.539750 0 0 0
0.616895 -0.900051 8.072742 0 0 0
0.673254 -1.239482 8.752779 0 0 0
0.617552 -0.757992 7.898670 0 0 0
0.587004 2.573059 6.491874 0 0 0
0.663596 0.317957 7.124488 0 0 0
0.775599 2.365392 6.635071 0 0 0
0.809156 2.373992 6.635459 0 0 0
0.826692 2.246043 6.721749 0 0 0
1.165735 -0.857508 9.838483 0 0 0
0.935513 2.310262 6.680630 0 0 0
0.978582 2.420583 6.615863 0 0 0
1.116550 0.011357 7.138817 0 0 0
1.124223 0.250380 7.190600 0 0 0
1.124223 0.250380 7.190600 0 0 0
1.124223 0.250380 7.190600 0 0 0
1.140296 -0.239110 7.188235 0 0 0
1.140296 -0.239110 7.188235 0 0 0
1.381953 -1.608451 8.573170 0 0 0
1.145536 1.909615 6.954979 0 0 0
1.174331 1.741739 7.087017 0 0 0
1.258402 0.098419 7.232332 0 0 0
1.186531 2.312933 6.672589 0 0 0
1.315521 -0.254344 7.319643 0 0 0
1.214361 2.287084 6.683847 0 0 0
1.248375 2.129160 6.798942 0 0 0
1.318330 1.756123 7.066525 0 0 0
1.201706 2.606506 6.438373 0 0 0
1.324926 1.783849 7.048453 0 0 0
1.324926 1.783849 7.048453 0 0 0
1.296735 2.009706 6.884691 0 0 0
1.242352 2.623252 6.469454 0 0 0
1.308357 2.088927 6.804912 0 0 0
1.428275 -0.188546 7.288969 0 0 0
1.385789 1.807698 7.044782 0 0 0
1.385789 1.807698 7.044782 0 0 0
1.414454 1.774801 7.010026 0 0 0
1.552381 0.077976 7.644579 0 0 0
1.428790 1.884552 7.027643 0 0 0
1.399361 2.146871 6.787246 0 0 0
1.717220 -0.853206 8.022461 0 0 0
1.476324 2.016668 6.865641 0 0 0
1.411031 2.517641 6.489572 0 0 0
1.778818 -0.787544 8.006260 0 0 0
1.810967 -0.638381 7.916367 0 0 0
1.623300 1.725841 7.064538 0 0 0
1.628163 1.758292 7.052982 0 0 0
1.835231 -0.667350 7.900136 0 0 0
1.579850 2.394634 6.612162 0 0 0
1.671203 2.129200 6.771608 0 0 0
1.809973 1.507619 7.232466 0 0 0
1.838448 1.431554 7.289206 0 0 0
1.724631 2.103301 6.793802 0 0 0
1.994592 -0.197100 7.790601 0 0 0
1.907468 1.246373 7.422267 0 0 0
1.777360 2.066438 6.817654 0 0 0
1.749934 2.518534 6.459539 0 0 0
1.920835 1.787879 7.012243 0 0 0
1.962792 1.572742 7.151787 0 0 0
1.962792 1.572742 7.151787 0 0 0
2.024707 1.504392 7.182434 0 0 0
1.864942 2.410356 6.554080 0 0 0
2.108267 1.374278 7.314459 0 0 0
2.137588 1.294259 7.377159 0 0 0
2.130282 1.497004 7.250473 0 0 0
2.130282 1.497004 7.250473 0 0 0
0.533484 0.655320 2.155660 0 0 0
1.909257 2.586298 6.408995 0 0 0
2.101396 1.841152 6.979217 0 0 0
2.249819 1.240684 7.413551 0 0 0
2.244493 1.269609 7.393095 0 0 0
2.285194 1.073871 7.513441 0 0 0
2.115195 1.910968 6.920584 0 0 0
2.019914 2.401083 6.536526 0 0 0
2.874547 4.067737 9.270217 0 0 0
2.315864 1.157405 7.469694 0 0 0
1.985741 2.605495 6.389220 0 0 0
1.973585 2.705265 6.313704 0 0 0
2.380050 0.998819 7.589753 0 0 0
2.287201 1.378241 7.280788 0 0 0
2.015516 2.672954 6.324494 0 0 0
2.167517 2.176502 6.688269 0 0 0
2.243408 1.971178 6.857447 0 0 0
2.235740 2.107483 6.741574 0 0 0
2.530052 0.951375 7.612612 0 0 0
2.166753 2.489158 6.459022 0 0 0
2.343571 1.907064 6.899767 0 0 0
2.517820 1.338482 7.319543 0 0 0
2.312381 2.215296 6.696815 0 0 0
2.252702 2.443496 6.518258 0 0 0
2.588740 1.286536 7.365659 0 0 0
2.588740 1.286536 7.365659 0 0 0
2.644450 1.212288 7.415161 0 0 0
2.531567 1.694697 7.051931 0 0 0
2.736715 1.012654 7.544453 0 0 0
2.530950 1.792623 6.975731 0 0 0
2.342323 2.458571 6.450451 0 0 0
2.697157 1.181774 7.413410 0 0 0
2.495252 2.027558 6.795525 0 0 0
2.737585 1.150477 7.425713 0 0 0
2.819039 0.969898 7.575694 0 0 0
2.437296 2.335799 6.534149 0 0 0
2.791872 1.157056 7.449253 0 0 0
2.943612 1.301563 7.382894 0 0 0
2.943612 1.301563 7.382894 0 0 0
2.933176 1.313889 7.311267 0 0 0
2.991436 1.154888 7.416384 0 0 0
2.900469 1.564820 7.106408 0 0 0
2.812372 1.981993 6.831957 0 0 0
3.050763 1.220833 7.366430 0 0 0
1.772775 -0.424407 3.608695 0 0 0
2.797993 2.267668 6.630947 0 0 0
3.030107 1.464369 7.163062 0 0 0
3.350537 0.457318 7.898413 0 0 0
3.336758 0.673136 7.806446 0 0 0
3.143522 1.459986 7.171376 0 0 0
2.969283 2.058237 6.759055 0 0 0
3.225195 1.438633 7.255971 0 0 0
2.898020 2.391096 6.491904 0 0 0
2.898020 2.391096 6.491904 0 0 0
3.476040 0.888476 7.586330 0 0 0
3.144347 1.961375 6.791538 0 0 0
3.182559 1.842173 6.854240 0 0 0
-2.171677 -0.969534 -5.093123 0 0 0
3.732662 0.237296 8.008853 0 0 0
3.339604 1.481577 7.161086 0 0 0
3.339604 1.481577 7.161086 0 0 0
3.722327 0.366578 7.962410 0 0 0
3.837216 0.188660 8.087497 0 0 0
3.835962 0.223173 8.057004 0 0 0
3.835962 0.223173 8.057004 0 0 0
3.774059 0.358691 7.922276 0 0 0
4.049969 -0.132557 8.295935 0 0 0
3.547686 1.358468 7.258816 0 0 0
3.755813 0.806500 7.614409 0 0 0
3.337269 2.007007 6.768982 0 0 0
3.307634 2.116050 6.686683 0 0 0
3.986544 0.233493 8.007215 0 0 0
3.986544 0.233493 8.007215 0 0 0
3.365126 2.032518 6.710340 0 0 0
4.145431 -0.049630 8.243729 0 0 0
3.142549 0.418189 5.766567 0 0 0
3.392985 2.110600 6.670415 0 0 0
4.135890 0.178614 8.058946 0 0 0
4.155488 0.131958 8.091953 0 0 0
3.682101 1.439750 7.151344 0 0 0
3.557735 1.905363 6.807695 0 0 0
3.393059 2.373341 6.464408 0 0 0
3.753775 1.550118 7.049325 0 0 0
3.545269 2.115182 6.658548 0 0 0
3.545269 2.115182 6.658548 0 0 0
3.404044 2.479514 6.368522 0 0 0
3.795498 1.511567 7.090993 0 0 0
4.140601 0.617834 7.726068 0 0 0
3.535122 2.230045 6.556237 0 0 0
3.510111 2.447078 6.453904 0 0 0
3.973816 1.223390 7.300364 0 0 0
3.923665 1.327735 7.199833 0 0 0
3.893140 1.471072 7.126648 0 0 0
3.438146 2.665809 6.232727 0 0 0
3.438146 2.665809 6.232727 0 0 0
3.438146 2.665809 6.232727 0 0 0
4.208157 0.758696 7.533238 0 0 0
3.812962 1.956852 6.744200 0 0 0
4.006744 1.681364 6.940441 0 0 0
4.106319 1.488717 7.072338 0 0 0
3.998823 1.865407 6.797681 0 0 0
3.989615 1.991489 6.714797 0 0 0
3.906460 2.302593 6.501743 0 0 0
4.353548 1.197401 7.216273 0 0 0
4.654225 0.689751 7.642913 0 0 0
3.955247 2.270979 6.485559 0 0 0
3.955247 2.270979 6.485559 0 0 0
3.989188 2.238667 6.530889 0 0 0
4.856849 0.233559 7.935326 0 0 0
4.402769 1.306243 7.182717 0 0 0
4.402769 1.306243 7.182717 0 0 0
4.026340 2.245175 6.536226 0 0 0
4.480564 1.220484 7.238738 0 0 0
4.219130 1.902718 6.769234 0 0 0
4.298647 1.816526 6.839709 0 0 0
4.070176 2.292792 6.476492 0 0 0
4.887865 0.454344 7.750772 0 0 0
4.692728 0.912783 7.404252 0 0 0
4.144322 2.212077 6.535068 0 0 0
4.220171 2.135332 6.613190 0 0 0
4.550673 1.410966 7.108221 0 0 0
4.588515 1.354668 7.137422 0 0 0
4.588515 1.354668 7.137422 0 0 0
-7.239578 0.917541 -10.671769 0 0 0
5.009695 0.407684 7.735431 0 0 0
5.048580 0.530959 7.698492 0 0 0
4.674682 1.366003 7.116256 0 0 0
5.259320 0.126421 7.946469 0 0 0
5.259320 0.126421 7.946469 0 0 0
5.255087 0.338304 7.795031 0 0 0
-5.831986 -0.606549 8.939329 0 0 0
-6.067035 -0.661041 9.360980 0 0 0
-6.273709 -1.621855 10.212629 0 0 0
-6.273709 -1.621855 10.212629 0 0 0
-1.199617 1.029292 2.263999 0 0 0
-3.118030 1.272140 7.794378 0 0 0
-2.954309 -2.671708 10.794072 0 0 0
-2.954309 -2.671708 10.794072 0 0 0
-0.255944 0.667256 1.637486 0 0 0
-1.290344 2.389316 6.725403 0 0 0
-0.680744 0.357155 -2.038895 0 0 0
23.868925 33.040458 -167.284471 0 0 0
-0.680764 0.357185 -2.038400 0 0 0
-1.270442 -0.636068 7.985731 0 0 0
-0.295819 -0.010589 2.878594 0 0 0
-1.222079 -0.610641 7.989072 0 0 0
-1.064343 -0.909486 8.025031 0 0 0
-0.506293 -2.142899 7.471451 0 0 0
-0.474505 -1.841374 7.403042 0 0 0
-0.442583 -2.277895 7.536782 0 0 0
-0.400571 -1.790786 7.393593 0 0 0
-0.372589 -2.006965 7.336649 0 0 0
-0.325081 -1.779839 7.379729 0 0 0
-0.325081 -1.779839 7.379729 0 0 0
-0.258320 -1.956637 7.371323 0 0 0
-0.179360 -0.154772 7.687159 0 0 0
-0.087619 -1.910837 7.456532 0 0 0
-0.087619 -1.910837 7.456532 0 0 0
0.182549 0.489730 8.082264 0 0 0
0.187735 -1.913343 8.007781 0 0 0
0.166771 0.238331 6.636375 0 0 0
0.207874 0.404069 7.672835 0 0 0
0.095977 3.592394 -12.398463 0 0 0
0.308152 3.384202 7.764098 0 0 0
0.386310 -0.143819 7.299893 0 0 0
0.449969 -1.388531 7.985990 0 0 0
0.382011 2.566715 6.533386 0 0 0
0.489160 -0.859906 8.066212 0 0 0
0.489160 -0.859906 8.066212 0 0 0
0.515452 -0.919021 8.097522 0 0 0
0.430155 2.378593 6.669672 0 0 0
0.514083 2.618472 6.469546 0 0 0
0.665088 -0.831365 8.027399 0 0 0
0.704984 -0.495774 7.815021 0 0 0
0.772254 0.225063 7.067082 0 0 0
0.974828 -1.682311 8.709131 0 0 0
0.983587 -1.410640 8.528332 0 0 0
0.897339 -0.068465 7.092419 0 0 0
-0.772173 0.582306 -10.360461 0 0 0
1.082598 1.950913 6.965874 0 0 0
1.191850 0.640942 7.496219 0 0 0
1.179137 0.238594 7.236038 0 0 0
1.179137 0.238594 7.236038 0 0 0
1.179137 0.238594 7.236038 0 0 0
1.138854 2.024565 6.896114 0 0 0
1.138854 2.024565 6.896114 0 0 0
1.104533 2.242196 6.700345 0 0 0
1.171468 1.932514 6.956492 0 0 0
1.169578 1.971749 6.934464 0 0 0
1.448915 -1.482855 8.535297 0 0 0
1.241793 -0.237812 7.289485 0 0 0
1.206470 1.754730 7.070284 0 0 0
1.478746 -1.590278 8.607553 0 0 0
1.218446 1.858398 7.032398 0 0 0
1.459957 0.520454 8.094049 0 0 0
1.309221 -0.173297 7.245688 0 0 0
1.224556 2.317296 6.658458 0 0 0
1.198427 2.583494 6.458044 0 0 0
1.378617 0.368978 7.424104 0 0 0
1.252555 2.341154 6.643280 0 0 0
1.391201 -0.127231 7.238248 0 0 0
1.603291 2.588425 7.542947 0 0 0
1.302510 2.378756 6.613951 0 0 0
1.302510 2.378756 6.613951 0 0 0
1.358947 2.144429 6.770652 0 0 0
1.492821 1.574172 7.221933 0 0 0
1.685900 -0.729682 7.988306 0 0 0
1.680717 -0.679870 7.943838 0 0 0
1.580362 1.771318 7.099554 0 0 0
1.580362 1.771318 7.099554 0 0 0
1.984671 -0.882574 8.183616 0 0 0
1.810956 1.585637 7.185179 0 0 0
1.623042 2.631564 6.389834 0 0 0
1.758682 2.020163 6.851274 0 0 0
2.048070 -0.214554 7.800937 0 0 0
1.936683 1.333013 7.343632 0 0 0
2.047478 -0.366698 7.749024 0 0 0
2.047478 -0.366698 7.749024 0 0 0
1.777615 2.294609 6.634157 0 0 0
1.947598 1.490958 7.231400 0 0 0
1.808169 2.453517 6.521711 0 0 0
1.900369 2.580050 6.385951 0 0 0
2.000957 2.333397 6.595686 0 0 0
2.054304 2.306707 6.617073 0 0 0
2.048231 2.350409 6.605103 0 0 0
2.280360 1.495346 7.241293 0 0 0
2.274050 1.525165 7.194962 0 0 0
2.037733 2.629208 6.373915 0 0 0
2.138865 2.324354 6.582056 0 0 0
2.451333 1.451338 7.233246 0 0 0
2.616016 0.847934 7.603671 0 0 0
2.616016 0.847934 7.603671 0 0 0
2.261502 2.349000 6.564776 0 0 0
2.441337 1.766296 6.964865 0 0 0
2.338450 2.161329 6.677000 0 0 0
2.640528 1.250264 7.380408 0 0 0
2.394308 2.242426 6.637737 0 0 0
2.564145 1.696093 7.036854 0 0 0
2.426859 2.404729 6.551408 0 0 0
2.492784 2.308092 6.583062 0 0 0
2.603884 1.942704 6.870974 0 0 0
2.903193 0.891274 7.646329 0 0 0
2.500605 2.361864 6.544160 0 0 0
2.528680 2.644655 6.310040 0 0 0
4.071963 -2.588842 10.815280 0 0 0
2.809093 1.997777 6.786352 0 0 0
3.161081 0.853246 7.617460 0 0 0
2.946463 1.563975 7.103207 0 0 0
2.652244 2.581008 6.381113 0 0 0
2.924175 1.909537 6.852679 0 0 0
3.181783 1.148770 7.412992 0 0 0
3.107925 1.423912 7.203616 0 0 0
3.436693 0.525741 7.879275 0 0 0
3.362988 0.748034 7.679808 0 0 0
3.091230 1.625192 7.036837 0 0 0
3.392136 1.132903 7.439178 0 0 0
3.102342 1.964841 6.805832 0 0 0
3.666968 0.276303 8.039469 0 0 0
2.902451 2.634311 6.306214 0 0 0
3.513802 0.807725 7.626405 0 0 0
3.047669 2.272271 6.601368 0 0 0
3.234232 1.788149 6.905963 0 0 0
3.234232 1.788149 6.905963 0 0 0
3.044769 2.525325 6.369185 0 0 0
3.622008 0.885058 7.566571 0 0 0
3.622008 0.885058 7.566571 0 0 0
3.888859 0.097068 8.116257 0 0 0
3.888859 0.097068 8.116257 0 0 0
-17.182166 11.321202 -42.678325 0 0 0
3.930822 0.106702 8.076231 0 0 0
3.276610 1.674860 6.650713 0 0 0
3.465041 1.721503 6.964924 0 0 0
3.621341 1.479119 7.141635 0 0 0
3.578330 1.638711 7.005069 0 0 0
3.304823 2.348736 6.474484 0 0 0
3.296998 2.435497 6.437615 0 0 0
3.296998 2.435497 6.437615 0 0 0
3.485268 1.959245 6.781799 0 0 0
3.315411 2.555796 6.339156 0 0 0
3.720018 1.604498 7.053082 0 0 0
3.834228 1.311489 7.211124 0 0 0
3.815417 1.413283 7.175049 0 0 0
4.473911 -0.223540 8.251538 0 0 0
3.391363 2.663924 6.228625 0 0 0
3.636629 2.082069 6.664311 0 0 0
3.616807 2.170202 6.628192 0 0 0
3.821592 1.744631 6.964146 0 0 0
3.821592 1.744631 6.964146 0 0 0
3.465587 2.639462 6.264675 0 0 0
4.654022 -0.405603 8.331556 0 0 0
4.645016 -0.172456 8.284385 0 0 0
4.645016 -0.172456 8.284385 0 0 0
3.897817 1.678873 6.953478 0 0 0
3.897817 1.678873 6.953478 0 0 0
3.528848 2.600879 6.279752 0 0 0
3.493456 2.678329 6.216491 0 0 0
3.526155 2.655848 6.270149 0 0 0
4.149897 1.105184 7.360461 0 0 0
4.131396 1.147714 7.322083 0 0 0
3.560414 2.651100 6.263440 0 0 0
3.692429 2.321967 6.489499 0 0 0
3.687784 2.348913 6.464075 0 0 0
4.171243 1.145723 7.290184 0 0 0
3.605992 2.617059 6.283615 0 0 0
3.570667 2.699353 6.221344 0 0 0
3.681029 2.479480 6.396256 0 0 0
3.681029 2.479480 6.396256 0 0 0
3.659003 2.508809 6.350208 0 0 0
3.659003 2.508809 6.350208 0 0 0
4.228929 1.164074 7.316555 0 0 0
3.784594 2.260309 6.538726 0 0 0
3.925627 1.841906 6.761892 0 0 0
3.925627 1.841906 6.761892 0 0 0
4.203016 1.299993 7.207664 0 0 0
3.721582 2.514343 6.377008 0 0 0
4.628725 0.198984 7.921020 0 0 0
3.757007 2.397859 6.419321 0 0 0
3.757007 2.397859 6.419321 0 0 0
3.728573 2.569857 6.330673 0 0 0
4.263841 1.258142 7.232272 0 0 0
3.747239 2.617425 6.291564 0 0 0
3.765478 2.562633 6.315937 0 0 0
3.761989 2.585791 6.280333 0 0 0
5.515490 -1.564954 9.166128 0 0 0
4.560587 0.740613 7.581660 0 0 0
3.883344 2.403878 6.434009 0 0 0
4.409011 1.149609 7.296667 0 0 0
3.812557 2.554231 6.312261 0 0 0
4.197084 1.711476 6.911822 0 0 0
4.197084 1.711476 6.911822 0 0 0
3.993438 2.205046 6.559415 0 0 0
4.316457 1.618034 6.956049 0 0 0
4.316457 1.618034 6.956049 0 0 0
4.821734 0.465961 7.746108 0 0 0
4.226102 1.925594 6.744633 0 0 0
4.749720 0.801402 7.569669 0 0 0
4.626293 1.102779 7.315063 0 0 0
4.531496 1.341542 7.119672 0 0 0
5.111661 0.091852 7.995850 0 0 0
4.511416 1.482695 7.045013 0 0 0
5.009082 0.365529 7.808383 0 0 0
4.277814 2.036713 6.652191 0 0 0
4.319013 1.974730 6.701902 0 0 0
5.592662 0.949189 8.640073 0 0 0
5.592662 0.949189 8.640073 0 0 0
4.366499 1.899258 6.741688 0 0 0
4.781958 0.998248 7.335646 0 0 0
-3.688199 -0.508454 -5.667191 0 0 0
5.778394 -0.969442 8.727697 0 0 0
5.778394 -0.969442 8.727697 0 0 0
5.032815 0.671276 7.607349 0 0 0
5.934802 -1.332099 8.956938 0 0 0
4.996662 0.849255 7.449761 0 0 0
-5.816646 0.414093 8.683948 0 0 0
-6.019185 -0.593934 9.294668 0 0 0
-6.696505 -2.116110 10.501644 0 0 0
-5.454644 -1.123637 9.726424 0 0 0
-4.885915 -1.182578 9.631187 0 0 0
-4.891094 -1.426172 9.914139 0 0 0
-4.035055 -0.271243 8.998244 0 0 0
-5.053976 -4.434725 14.443512 0 0 0
-5.053976 -4.434725 14.443512 0 0 0
-3.623548 -2.277660 10.459061 0 0 0
-3.635028 -2.289310 10.502270 0 0 0
-0.513309 0.256281 3.321880 0 0 0
-2.973402 -2.807073 10.978137 0 0 0
-1.799473 -1.466517 8.593469 0 0 0
-1.823916 -1.889766 8.854931 0 0 0
-1.823916 -1.889766 8.854931 0 0 0
-1.709444 -1.890049 8.837366 0 0 0
-1.709444 -1.890049 8.837366 0 0 0
-0.279320 0.326416 0.672803 0 0 0
-0.175972 0.591654 1.235117 0 0 0
5.025421 12.198991 -58.702518 0 0 0
-1.278004 -1.431034 7.914136 0 0 0
-1.258067 -1.535395 7.954427 0 0 0
-1.191085 -0.916186 8.236001 0 0 0
-1.144299 -1.004052 8.060787 0 0 0
-1.060627 -0.803283 7.901785 0 0 0
-1.060627 -0.803283 7.901785 0 0 0
-0.785748 -1.399032 7.975823 0 0 0
-0.793037 -0.133231 8.008068 0 0 0
-0.622659 -1.341835 7.710541 0 0 0
-0.531765 -1.902199 7.412723 0 0 0
-0.474736 -1.899919 7.378254 0 0 0
-0.474327 -1.833805 7.383867 0 0 0
-0.383343 -2.072271 7.336028 0 0 0
-0.355773 -0.175010 7.663966 0 0 0
-0.231443 0.012186 7.526398 0 0 0
-0.105708 -1.631368 7.503607 0 0 0
-0.030493 -0.725319 7.199308 0 0 0
-0.020240 0.383639 7.491787 0 0 0
0.109787 2.493790 6.601760 0 0 0
0.154383 -0.104861 7.771149 0 0 0
0.162159 2.571799 6.546549 0 0 0
0.212311 0.040187 7.798430 0 0 0
0.241919 -0.361730 7.906921 0 0 0
0.206421 2.533902 6.545793 0 0 0
0.261935 2.509139 6.589873 0 0 0
0.455725 -0.794228 8.040556 0 0 0
0.488333 -0.858237 8.059041 0 0 0
0.488333 -0.858237 8.059041 0 0 0
0.442436 2.330796 6.716392 0 0 0
0.460182 2.416032 6.696852 0 0 0
1.261639 2.325294 8.609517 0 0 0
1.080210 2.054406 6.842016 0 0 0
1.080210 2.054406 6.842016 0 0 0
1.071372 2.205539 6.786694 0 0 0
1.414440 -1.522049 8.544889 0 0 0
1.142285 2.027128 6.907792 0 0 0
1.142285 2.027128 6.907792 0 0 0
1.188608 2.382665 6.620967 0 0 0
1.627240 -1.182019 8.474174 0 0 0
1.547731 1.573073 7.211433 0 0 0
1.492935 1.952438 6.918777 0 0 0
-1.506674 -1.433166 -7.114415 0 0 0
1.542297 2.112364 6.798678 0 0 0
1.828759 1.654502 7.101301 0 0 0
1.842252 2.466783 6.509334 0 0 0
2.175292 1.423963 7.296837 0 0 0
2.198245 1.833743 6.970173 0 0 0
2.388786 1.094737 7.539877 0 0 0
2.299702 1.412832 7.274185 0 0 0
2.299702 1.412832 7.274185 0 0 0
2.336223 1.455493 7.271614 0 0 0
2.100725 2.411229 6.530147 0 0 0
2.138538 2.449099 6.538541 0 0 0
2.124650 2.469234 6.459415 0 0 0
2.179000 2.366497 6.566959 0 0 0
2.269132 2.379092 6.537735 0 0 0
2.231716 2.546766 6.418325 0 0 0
2.279161 2.407282 6.500675 0 0 0
-0.554164 0.351735 -1.557827 0 0 0
2.653441 1.164380 7.418765 0 0 0
2.517364 1.952939 6.877833 0 0 0
2.451999 2.245126 6.642608 0 0 0
3.107280 0.588398 7.810238 0 0 0
2.621813 2.288166 6.583425 0 0 0
2.710134 2.028394 6.772225 0 0 0
2.760951 2.037191 6.775894 0 0 0
2.804080 2.064566 6.742150 0 0 0
4.011472 -2.060409 9.620652 0 0 0
4.149792 -2.392986 9.855002 0 0 0
4.149792 -2.392986 9.855002 0 0 0
3.361075 0.395469 7.934251 0 0 0
2.916537 2.079241 6.730288 0 0 0
2.949928 1.903556 6.796532 0 0 0
3.361047 0.797129 7.644262 0 0 0
3.305957 1.004061 7.507146 0 0 0
3.051671 1.870988 6.884675 0 0 0
3.089016 1.832164 6.879938 0 0 0
2.864149 2.522391 6.377893 0 0 0
2.842961 2.633888 6.315967 0 0 0
2.835364 2.662809 6.275823 0 0 0
3.619674 0.476422 7.905458 0 0 0
2.972862 2.539831 6.374272 0 0 0
3.791538 0.152477 8.089811 0 0 0
3.023635 2.513423 6.397842 0 0 0
2.996713 2.553644 6.347058 0 0 0
3.186636 2.164045 6.649691 0 0 0
3.095835 2.556539 6.389857 0 0 0
3.288634 2.050666 6.730142 0 0 0
3.090819 2.631129 6.289272 0 0 0
3.090819 2.631129 6.289272 0 0 0
3.471419 1.722997 6.975742 0 0 0
3.292068 2.139779 6.619565 0 0 0
3.131287 2.650250 6.273871 0 0 0
4.106772 0.107625 8.109434 0 0 0
3.522607 1.718990 6.949337 0 0 0
3.288892 2.342129 6.448868 0 0 0
3.671356 1.584133 7.046503 0 0 0
3.412987 2.238744 6.567658 0 0 0
3.773229 1.395416 7.172555 0 0 0
3.616719 1.907080 6.806631 0 0 0
3.426842 2.376756 6.443583 0 0 0
4.654800 -1.222391 8.934996 0 0 0
4.477278 -0.224581 8.257471 0 0 0
3.762113 1.716160 6.946816 0 0 0
3.762113 1.716160 6.946816 0 0 0
3.560856 2.261643 6.555042 0 0 0
3.481331 2.472734 6.399603 0 0 0
3.620562 2.171609 6.633660 0 0 0
3.565106 2.301226 6.529283 0 0 0
4.078899 0.958762 7.419398 0 0 0
3.701352 2.151513 6.627587 0 0 0
3.938702 1.715937 6.930101 0 0 0
4.325728 0.803490 7.546942 0 0 0
3.865226 1.991811 6.734198 0 0 0
3.889112 2.000492 6.701553 0 0 0
3.611760 2.688999 6.211532 0 0 0
3.680780 2.545852 6.314619 0 0 0
4.303183 1.124530 7.371107 0 0 0
3.777400 2.368847 6.463762 0 0 0
3.854159 2.195941 6.562430 0 0 0
3.948302 2.020594 6.705785 0 0 0
3.687600 2.591685 6.256094 0 0 0
5.430401 -1.669079 9.195386 0 0 0
3.922318 2.054862 6.645233 0 0 0
4.281927 1.277484 7.194860 0 0 0
4.346453 1.207852 7.281354 0 0 0
4.217145 1.451105 7.074963 0 0 0
4.217145 1.451105 7.074963 0 0 0
3.845577 2.526498 6.374046 0 0 0
3.845577 2.526498 6.374046 0 0 0
4.734231 0.350663 7.839597 0 0 0
4.025254 2.099991 6.590102 0 0 0
4.025254 2.099991 6.590102 0 0 0
3.827015 2.609728 6.255433 0 0 0
5.627991 -1.668501 9.177736 0 0 0
4.272157 1.662202 6.956828 0 0 0
4.272157 1.662202 6.956828 0 0 0
3.957626 2.329058 6.432804 0 0 0
4.104326 2.138408 6.646778 0 0 0
3.953898 2.370009 6.409017 0 0 0
4.826309 0.465117 7.753375 0 0 0
4.160242 2.084996 6.655200 0 0 0
4.246225 1.853628 6.757426 0 0 0
4.144661 2.126543 6.595992 0 0 0
4.144661 2.126543 6.595992 0 0 0
5.469580 -0.963135 8.654796 0 0 0
5.469580 -0.963135 8.654796 0 0 0
5.030698 0.368797 7.927893 0 0 0
5.030698 0.368797 7.927893 0 0 0
4.509089 1.606633 6.957604 0 0 0
5.735696 -1.046501 8.836618 0 0 0
4.749999 1.161743 7.272718 0 0 0
4.683136 1.277729 7.168555 0 0 0
13.563417 8.101541 21.475889 0 0 0
5.030059 0.598541 7.603177 0 0 0
4.880184 0.947108 7.363570 0 0 0
13.553397 5.873532 23.433654 0 0 0
4.897267 1.005951 7.370754 0 0 0
5.833558 -1.140654 8.692337 0 0 0
-5.417704 0.479782 8.413173 0 0 0
-6.045412 -2.056161 10.495238 0 0 0
-1.415147 0.739203 2.384378 0 0 0
-4.476442 -3.152186 11.296364 0 0 0
-4.172260 -3.392611 11.423911 0 0 0
-3.730528 -2.358801 10.576953 0 0 0
-0.333506 0.387657 0.444616 0 0 0
-2.106116 -0.696861 9.086592 0 0 0
-1.685985 -1.147674 8.614149 0 0 0
-1.193560 -1.244778 7.928561 0 0 0
-0.943413 2.749262 6.474331 0 0 0
-0.978697 -0.341448 7.897037 0 0 0
-0.745100 -1.059154 7.515444 0 0 0
-0.662070 -1.798731 7.472234 0 0 0
-0.634130 -0.768311 7.237080 0 0 0
-0.634130 -0.768311 7.237080 0 0 0
-0.665790 -0.144835 7.730739 0 0 0
-0.635666 -0.010570 7.623778 0 0 0
-0.541658 -1.697939 7.295823 0 0 0
-0.538515 -0.128704 7.681852 0 0 0
-0.516248 -0.194796 7.651478 0 0 0
-0.516248 -0.194796 7.651478 0 0 0
-0.418606 -1.846668 7.365888 0 0 0
-3.077786 -6.428846 30.662720 0 0 0
-0.155721 -1.880785 7.433084 0 0 0
-0.076721 -2.005745 7.464580 0 0 0
-0.066097 -1.932188 7.496816 0 0 0
0.006172 -1.335188 7.699132 0 0 0
0.314021 -1.911204 8.108400 0 0 0
0.327936 2.739359 6.419792 0 0 0
0.463148 2.514760 6.570393 0 0 0
0.631701 -0.477637 7.797104 0 0 0
0.400759 1.082914 2.569927 0 0 0
1.065894 -1.629148 10.041368 0 0 0
0.963819 -1.327325 8.486664 0 0 0
0.859512 1.991971 6.892156 0 0 0
1.021294 2.307361 6.707686 0 0 0
1.271255 -0.652071 8.266674 0 0 0
1.203824 0.088806 7.203648 0 0 0
1.276427 1.891923 6.972560 0 0 0
1.354303 1.907669 6.964134 0 0 0
1.723048 -0.796448 8.022722 0 0 0
1.728971 1.713963 7.057972 0 0 0
1.811515 1.988160 6.872911 0 0 0
1.730700 2.674108 6.349912 0 0 0
2.384032 1.264649 7.373662 0 0 0
3.181172 -2.305389 9.713267 0 0 0
2.412124 1.389519 7.280121 0 0 0
3.399310 -2.133452 9.620518 0 0 0
3.664692 -2.725504 10.266221 0 0 0
2.648802 1.302887 7.345382 0 0 0
2.825093 0.759538 7.803253 0 0 0
2.857970 0.851587 7.661303 0 0 0
2.780684 1.363342 7.268678 0 0 0
1.274297 0.283358 3.307995 0 0 0
2.977018 0.790102 7.718249 0 0 0
2.455920 2.643636 6.324574 0 0 0
2.598027 2.557921 6.366204 0 0 0
4.181456 -2.177386 9.654342 0 0 0
4.181456 -2.177386 9.654342 0 0 0
3.025015 1.679663 6.999740 0 0 0
2.799846 2.422809 6.463114 0 0 0
4.570398 -3.475888 10.485933 0 0 0
-2.057980 0.496430 -3.080600 0 0 0
3.139780 1.751937 6.958422 0 0 0
3.026293 2.409284 6.517431 0 0 0
3.040633 2.428789 6.464034 0 0 0
3.099671 2.298651 6.554689 0 0 0
4.969594 -3.588725 10.488272 0 0 0
3.917938 0.218808 8.052135 0 0 0
3.078052 2.593656 6.330482 0 0 0
4.358198 -1.136850 8.717601 0 0 0
3.285601 2.332496 6.516912 0 0 0
12.232031 -6.227902 24.788844 0 0 0
3.185210 2.658205 6.259091 0 0 0
4.079599 -0.307712 7.647590 0 0 0
3.487101 2.333687 6.483654 0 0 0
3.422618 2.554051 6.335411 0 0 0
4.553282 -0.400759 8.397685 0 0 0
4.308210 0.427116 7.840047 0 0 0
4.308210 0.427116 7.840047 0 0 0
3.484960 2.480772 6.339271 0 0 0
4.463299 -0.005064 8.104911 0 0 0
3.504402 2.555012 6.341364 0 0 0
3.504402 2.555012 6.341364 0 0 0
4.677717 -0.466382 8.449550 0 0 0
-3.983147 0.432236 -7.245198 0 0 0
5.077685 -1.391472 9.090780 0 0 0
5.077685 -1.391472 9.090780 0 0 0
3.618656 2.427055 6.431218 0 0 0
3.775184 2.133643 6.630556 0 0 0
3.775184 2.133643 6.630556 0 0 0
3.653191 2.436831 6.394110 0 0 0
5.186440 -1.496659 9.067524 0 0 0
3.801743 2.064716 6.643551 0 0 0
4.918032 -0.644825 8.558915 0 0 0
3.815244 2.167876 6.613699 0 0 0
4.339463 0.900803 7.490028 0 0 0
4.800223 -0.194489 8.250455 0 0 0
4.986496 -0.713272 8.524698 0 0 0
4.953443 -0.605474 8.473014 0 0 0
4.953443 -0.605474 8.473014 0 0 0
3.820319 2.323396 6.471912 0 0 0
4.631019 0.422357 7.803507 0 0 0
5.493238 -1.615777 9.227516 0 0 0
3.858657 2.360000 6.456710 0 0 0
3.738323 2.663626 6.195781 0 0 0
5.587193 -1.801782 9.217011 0 0 0
5.295895 -1.016675 8.703505 0 0 0
5.130103 -0.491675 8.419907 0 0 0
5.918618 -2.228323 9.570530 0 0 0
3.943612 2.511651 6.356599 0 0 0
4.930583 0.229127 7.939460 0 0 0
4.547310 1.152666 7.283678 0 0 0
4.789440 0.670617 7.628203 0 0 0
5.490745 -1.054947 8.729627 0 0 0
4.352374 1.665482 6.912152 0 0 0
5.107350 -0.020036 8.075973 0 0 0
4.342772 1.877802 6.811110 0 0 0
5.112801 0.029399 8.001002 0 0 0
4.693387 1.033445 7.345662 0 0 0
5.622447 -1.149256 8.773672 0 0 0
5.085659 0.306660 7.929868 0 0 0
5.695202 -1.125528 8.759161 0 0 0
5.695202 -1.125528 8.759161 0 0 0
5.791206 -1.123249 8.764827 0 0 0
6.157126 -1.874035 9.289694 0 0 0
5.291496 0.107506 7.959979 0 0 0
4.872752 1.082577 7.301172 0 0 0
4.872752 1.082577 7.301172 0 0 0
-6.540749 0.353378 10.407755 0 0 0
-6.687553 3.963404 11.063254 0 0 0
-13.181596 7.666491 23.285016 0 0 0
-4.562702 -0.778010 9.432434 0 0 0
-4.029287 -3.926396 11.825024 0 0 0
-3.668662 -3.317148 11.290553 0 0 0
-2.376753 1.387613 7.623613 0 0 0
-3.722860 -4.148313 11.988185 0 0 0
-2.731077 -4.522917 12.175184 0 0 0
0.503944 -1.190091 50.249265 0 0 0
-1.653996 -1.026741 8.672086 0 0 0
-1.058242 -1.026569 6.445395 0 0 0
-1.957562 -2.965880 10.999166 0 0 0
-1.069999 2.632946 6.556233 0 0 0
-0.893033 -0.211783 8.112162 0 0 0
-0.739339 -1.824525 7.523735 0 0 0
-0.668688 0.505471 -0.726575 0 0 0
-0.339975 -1.816463 7.378961 0 0 0
-0.339975 -1.816463 7.378961 0 0 0
-0.316725 -0.088095 7.625500 0 0 0
-0.291896 -1.136586 7.393115 0 0 0
-0.291896 -1.136586 7.393115 0 0 0
-0.209165 0.105645 7.516022 0 0 0
-0.057506 0.319358 7.493498 0 0 0
0.068152 -1.158398 7.514836 0 0 0
0.117990 0.450961 7.641713 0 0 0
0.173784 0.357175 7.604374 0 0 0
0.350820 -0.465826 7.848109 0 0 0
1.084315 -1.694399 8.668846 0 0 0
1.093930 -0.668252 8.180464 0 0 0
0.986120 2.098641 7.403045 0 0 0
0.321937 0.676569 2.350734 0 0 0
-3.260373 2.303678 -22.195639 0 0 0
1.075747 0.289950 7.216976 0 0 0
1.241634 0.185880 7.260545 0 0 0
1.484557 2.407058 6.567367 0 0 0
1.484557 2.407058 6.567367 0 0 0
1.829608 -1.875499 6.739117 0 0 0
1.581342 2.476313 6.503455 0 0 0
1.721139 2.030530 6.865770 0 0 0
1.856991 1.631070 7.127167 0 0 0
1.897971 2.348946 6.551551 0 0 0
1.897971 2.348946 6.551551 0 0 0
2.104177 1.584261 7.161807 0 0 0
2.260200 1.376886 7.304834 0 0 0
2.360068 1.175919 7.437744 0 0 0
2.360068 1.175919 7.437744 0 0 0
2.030061 2.573137 6.403938 0 0 0
3.200665 -2.317524 9.758235 0 0 0
3.658925 -2.827562 10.191144 0 0 0
2.629222 1.725844 7.068272 0 0 0
2.640640 1.619018 7.080154 0 0 0
2.767570 1.284326 7.327537 0 0 0
2.387987 2.704970 6.302302 0 0 0
2.972589 1.161368 7.412230 0 0 0
2.763164 2.407540 6.507031 0 0 0
3.353538 1.045759 7.472266 0 0 0
3.353538 1.045759 7.472266 0 0 0
3.511269 0.602453 7.738825 0 0 0
3.497257 0.968901 7.522322 0 0 0
3.497257 0.968901 7.522322 0 0 0
3.672677 0.500339 7.834503 0 0 0
3.536660 1.181974 7.400218 0 0 0
3.781939 0.436877 7.853707 0 0 0
3.246994 2.216282 6.601110 0 0 0
3.979484 0.325078 7.997013 0 0 0
4.624874 -1.396401 9.095793 0 0 0
4.624874 -1.396401 9.095793 0 0 0
3.510579 1.787032 6.910718 0 0 0
3.219991 2.597415 6.310994 0 0 0
4.039115 0.469706 7.904242 0 0 0
4.175244 0.195004 8.081326 0 0 0
4.513557 -1.042221 8.689764 0 0 0
3.841737 1.161106 7.357792 0 0 0
3.841737 1.161106 7.357792 0 0 0
5.108216 -2.444497 9.722275 0 0 0
4.015604 0.752859 7.640821 0 0 0
4.285072 0.124232 8.125576 0 0 0
3.689967 1.894155 6.811548 0 0 0
5.001736 -0.814742 9.116866 0 0 0
3.923759 1.555152 7.052716 0 0 0
4.561449 -0.059970 8.174551 0 0 0
4.691766 -0.135412 8.251646 0 0 0
4.446627 0.725114 7.608207 0 0 0
4.446627 0.725114 7.608207 0 0 0
3.824523 2.271402 6.516936 0 0 0
4.447136 0.806771 7.540563 0 0 0
4.675957 0.302168 7.866794 0 0 0
4.636210 0.487928 7.707251 0 0 0
4.636210 0.487928 7.707251 0 0 0
4.584366 0.623665 7.629245 0 0 0
4.584366 0.623665 7.629245 0 0 0
5.685620 -1.948106 9.427255 0 0 0
4.899412 -0.831360 8.041468 0 0 0
5.492731 -1.404210 8.968192 0 0 0
5.551515 -1.537120 9.060499 0 0 0
5.405775 -0.961918 8.761074 0 0 0
4.160423 1.977640 6.722721 0 0 0
5.211718 -0.495347 8.392430 0 0 0
4.945419 0.313578 7.883459 0 0 0
5.214019 -0.282319 8.206720 0 0 0
4.961228 0.862369 7.480746 0 0 0
4.551407 0.132860 6.762318 0 0 0
-6.358768 -2.442366 10.863752 0 0 0
-9.641697 5.647144 16.622189 0 0 0
-2.370009 1.385528 7.594591 0 0 0
-3.522837 -4.041007 11.895157 0 0 0
-3.531864 -4.366685 12.215099 0 0 0
-2.451387 -1.626478 9.143000 0 0 0
-4.865114 -6.801702 18.301345 0 0 0
-1.396656 2.408585 6.981302 0 0 0
-1.430075 -0.865494 8.181170 0 0 0
-1.375387 -0.605212 8.077023 0 0 0
-1.357806 -0.750918 8.099536 0 0 0
-0.898192 -0.209250 8.011711 0 0 0
-0.778902 -2.745997 8.469021 0 0 0
-0.484311 -4.707815 12.010399 0 0 0
-0.484311 -4.707815 12.010399 0 0 0
-0.267649 -0.604616 7.210577 0 0 0
-0.278190 0.034875 7.541789 0 0 0
-0.263068 -1.538193 7.657164 0 0 0
0.398687 -2.024147 8.266551 0 0 0
-0.438389 1.906459 -4.800221 0 0 0
1.158556 -0.986724 4.394286 0 0 0
1.048232 0.096594 7.100943 0 0 0
1.472266 0.040242 7.648255 0 0 0
1.684316 0.251086 8.126065 0 0 0
2.253574 -3.222309 10.453189 0 0 0
1.660315 2.375078 6.585600 0 0 0
1.813083 2.204248 6.677374 0 0 0
2.500665 -0.335164 8.504062 0 0 0
2.350484 1.173409 7.417187 0 0 0
2.138478 2.580274 6.376656 0 0 0
2.533080 1.189987 7.420900 0 0 0
3.521835 -2.760032 10.244190 0 0 0
2.917784 0.985994 7.550532 0 0 0
2.917784 0.985994 7.550532 0 0 0
2.824014 1.601085 7.099841 0 0 0
2.824014 1.601085 7.099841 0 0 0
3.003333 1.261115 7.382710 0 0 0
3.407843 0.710643 7.782148 0 0 0
3.258454 1.448035 7.195913 0 0 0
3.283898 1.294666 7.208579 0 0 0
3.283898 1.294666 7.208579 0 0 0
3.201442 1.686971 6.971884 0 0 0
3.634845 0.722959 7.660341 0 0 0
3.578112 1.014878 7.476147 0 0 0
3.578112 1.014878 7.476147 0 0 0
4.295275 -1.306219 8.935864 0 0 0
3.519684 1.393929 7.250377 0 0 0
3.672581 1.077225 7.447532 0 0 0
3.621218 1.205723 7.332161 0 0 0
3.576779 1.457273 7.198478 0 0 0
3.576779 1.457273 7.198478 0 0 0
3.920726 0.428597 7.847104 0 0 0
3.846060 0.847310 7.607930 0 0 0
3.846060 0.847310 7.607930 0 0 0
3.993474 0.972027 7.519887 0 0 0
4.227417 0.369120 7.920527 0 0 0
4.175330 0.536186 7.835545 0 0 0
4.175330 0.536186 7.835545 0 0 0
3.962144 1.087175 7.428989 0 0 0
3.962144 1.087175 7.428989 0 0 0
4.117234 0.763284 7.626301 0 0 0
3.423267 2.617450 6.293351 0 0 0
5.061100 -0.829860 9.253065 0 0 0
5.123425 -1.529873 9.243816 0 0 0
5.123425 -1.529873 9.243816 0 0 0
2.741097 0.637940 4.982240 0 0 0
2.741097 0.637940 4.982240 0 0 0
4.333650 0.717296 7.608829 0 0 0
4.666346 0.178577 7.940342 0 0 0
4.666346 0.178577 7.940342 0 0 0
5.477357 -0.469482 8.379900 0 0 0
4.959278 0.776489 7.571889 0 0 0
-2.847682 -3.044966 11.099310 0 0 0
-1.766755 -1.706455 8.769564 0 0 0
-0.949501 -1.193053 7.950571 0 0 0
-0.949501 -1.193053 7.950571 0 0 0
-0.904146 -0.206764 7.900692 0 0 0
-0.717362 -0.224922 7.816675 0 0 0
-0.717362 -0.224922 7.816675 0 0 0
-0.706037 -1.461277 8.033463 0 0 0
0.025360 -1.332885 7.863317 0 0 0
0.059402 -0.284069 7.912256 0 0 0
0.059402 -0.284069 7.912256 0 0 0
0.202972 0.659271 8.044377 0 0 0
0.358867 -1.051278 7.935474 0 0 0
0.588402 -4.889112 11.996921 0 0 0
0.388254 0.425420 7.399419 0 0 0
0.553682 -1.283293 8.224040 0 0 0
0.559497 -0.823656 8.040343 0 0 0
0.675090 -0.991427 8.209984 0 0 0
1.236312 -0.714018 8.440764 0 0 0
1.236312 -0.714018 8.440764 0 0 0
1.905589 -3.627390 10.841970 0 0 0
1.504245 1.923595 6.889791 0 0 0
1.756757 -0.669754 7.932953 0 0 0
1.756757 -0.669754 7.932953 0 0 0
1.377050 -0.926813 7.373755 0 0 0
1.663170 1.882272 7.071683 0 0 0
1.869266 1.737405 7.103111 0 0 0
1.814168 2.120391 6.769769 0 0 0
2.169209 -0.591649 7.934164 0 0 0
1.895473 2.264752 6.645398 0 0 0
1.895473 2.264752 6.645398 0 0 0
2.152776 1.382262 7.261658 0 0 0
3.072369 -2.474320 9.853060 0 0 0
2.187093 2.104583 6.761750 0 0 0
2.187093 2.104583 6.761750 0 0 0
2.256770 2.184389 6.716584 0 0 0
2.256770 2.184389 6.716584 0 0 0
2.304141 2.242973 6.612052 0 0 0
2.304141 2.242973 6.612052 0 0 0
2.512987 1.639733 7.003103 0 0 0
2.512987 1.639733 7.003103 0 0 0
3.528475 -1.993396 9.417560 0 0 0
2.823019 1.364824 7.313887 0 0 0
2.654872 2.051601 6.777243 0 0 0
2.799955 1.799716 6.832334 0 0 0
2.799955 1.799716 6.832334 0 0 0
2.768033 1.959288 6.797567 0 0 0
2.768033 1.959288 6.797567 0 0 0
2.805268 2.051125 6.763684 0 0 0
3.104328 1.321916 7.327187 0 0 0
3.145916 1.411519 7.195494 0 0 0
3.074883 1.786959 6.952307 0 0 0
3.074883 1.786959 6.952307 0 0 0
2.734812 2.054023 6.035112 0 0 0
3.106202 2.201757 6.683344 0 0 0
3.349314 1.977271 6.753297 0 0 0
5.114210 -2.778207 10.047650 0 0 0
4.026614 0.525683 7.900932 0 0 0
3.620597 1.500200 7.087873 0 0 0
3.620597 1.500200 7.087873 0 0 0
3.583197 1.832421 6.874213 0 0 0
3.900242 1.234039 7.308652 0 0 0
3.900242 1.234039 7.308652 0 0 0
4.218703 0.592940 7.712129 0 0 0
4.061683 1.117799 7.349380 0 0 0
4.061683 1.117799 7.349380 0 0 0
4.106206 1.197180 7.253178 0 0 0
4.218724 0.987498 7.386502 0 0 0
-4.182008 -1.312077 -7.091085 0 0 0
4.291112 1.064873 7.320268 0 0 0
4.354155 1.175357 7.286740 0 0 0
5.282236 0.000206 8.031449 0 0 0
-0.829062 0.132552 1.568166 0 0 0
-4.696380 -2.852608 11.130455 0 0 0
-2.682272 -1.774193 9.516322 0 0 0
-1.791651 -1.134508 8.549414 0 0 0
-2.079419 -4.171711 11.795314 0 0 0
-2.079419 -4.171711 11.795314 0 0 0
-0.471236 -2.161333 7.452250 0 0 0
-0.471236 -2.161333 7.452250 0 0 0
-0.197879 -0.345246 7.505396 0 0 0
-0.007412 -1.796686 7.621432 0 0 0
0.227079 -0.501090 7.787087 0 0 0
0.255016 0.456120 7.746128 0 0 0
0.281072 -0.025338 7.816580 0 0 0
0.308656 -0.307373 7.878210 0 0 0
0.708514 -1.213216 8.545570 0 0 0
0.660919 -0.382734 7.380907 0 0 0
-0.335973 1.213700 -3.413138 0 0 0
1.093642 0.237059 7.235733 0 0 0
1.093642 0.237059 7.235733 0 0 0
1.313621 -0.628129 7.851750 0 0 0
1.755986 1.923737 6.907623 0 0 0
1.978573 1.952054 6.862461 0 0 0
1.978573 1.952054 6.862461 0 0 0
2.456783 1.562632 7.139009 0 0 0
2.437448 1.699319 7.050809 0 0 0
2.235942 2.641482 6.367132 0 0 0
2.235942 2.641482 6.367132 0 0 0
2.435664 2.503954 6.468876 0 0 0
2.435664 2.503954 6.468876 0 0 0
4.091063 -1.521829 9.054245 0 0 0
3.059748 2.335618 6.530380 0 0 0
3.489867 2.008471 6.713130 0 0 0
3.881199 1.363276 7.188490 0 0 0
4.738133 -0.765360 8.759178 0 0 0
4.738133 -0.765360 8.759178 0 0 0
5.494583 -2.310951 9.602815 0 0 0
4.437689 -1.150185 7.697529 0 0 0
6.165271 -3.397901 10.364539 0 0 0
6.165271 -3.397901 10.364539 0 0 0
5.191248 -0.531642 8.624230 0 0 0
-15.740036 -11.292796 33.809229 0 0 0
-15.740036 -11.292796 33.809229 0 0 0
-4.629705 -2.791224 10.955479 0 0 0
-4.295689 -2.903352 10.948247 0 0 0
-1.542290 -2.230222 9.347473 0 0 0
-1.018212 -1.442528 7.973065 0 0 0
-0.736802 -2.367751 8.351259 0 0 0
-0.335955 1.213959 -3.431462 0 0 0
1.096056 0.235750 7.247420 0 0 0
1.096056 0.235750 7.247420 0 0 0
1.118454 -0.151299 7.118278 0 0 0
1.428907 -1.600442 8.665623 0 0 0
1.381310 -0.139568 7.380453 0 0 0
2.167327 -0.260515 7.979882 0 0 0
2.034262 1.785736 6.992765 0 0 0
2.465656 2.305322 6.595849 0 0 0
2.465656 2.305322 6.595849 0 0 0
4.200813 -1.575897 9.265508 0 0 0
-2.781216 -2.216833 -6.582447 0 0 0
3.867062 0.274884 7.880518 0 0 0
-2.776665 -1.625219 9.444420 0 0 0
-2.327182 -1.210500 8.984800 0 0 0
-0.681716 -1.950277 7.393408 0 0 0
-0.618923 0.056346 7.721527 0 0 0
-0.394805 -1.994270 7.401734 0 0 0
-0.233844 -1.682640 7.496626 0 0 0
-0.023965 0.064162 7.642718 0 0 0
-0.019795 0.071068 7.811834 0 0 0
0.475624 0.294780 7.336350 0 0 0
0.530658 -0.542801 8.031148 0 0 0
0.530658 -0.542801 8.031148 0 0 0
1.440582 -0.611512 7.965331 0 0 0
2.783991 -2.941900 10.301598 0 0 0
-2.018033 -1.682044 8.725043 0 0 0
-1.130055 -1.466976 8.094346 0 0 0
-0.590914 0.087660 7.701117 0 0 0
-0.386859 0.628936 7.807343 0 0 0
-0.031201 0.089684 7.638338 0 0 0
0.820140 -0.762831 8.026739 0 0 0
1.196246 -1.232386 8.363448 0 0 0
5.717185 -1.455635 8.937499 0 0 0
-1.531134 0.091094 8.674948 0 0 0
-1.326673 -0.454805 8.042529 0 0 0
1.693530 0.410019 7.962653 0 0 0
3.021198 -2.784892 9.825439 0 0 0
-0.405691 -0.911448 7.743855 0 0 0
0.934366 -2.709740 9.432792 0 0 0
2.218984 0.806707 8.609929 0 0 0
3.341685 -0.608436 8.699181 0 0 0
0.151274 -0.294400 8.017227 0 0 0
