ply
format ascii 1.0
element vertex 1260
property float x
property float y
property float z
property uchar diffuse_red
property uchar diffuse_green
property uchar diffuse_blue
end_header
-2.965595 0.634165 4.428495 0 0 0
-3.097517 0.372335 4.665385 0 0 0
-2.890182 0.726300 4.363567 0 0 0
-3.104425 0.316865 4.721026 0 0 0
-3.104425 0.316865 4.721026 0 0 0
-2.967055 0.519396 4.538077 0 0 0
-2.948409 0.548394 4.518366 0 0 0
-3.342636 -0.169377 5.127759 0 0 0
-2.819270 0.757291 4.328333 0 0 0
-0.490768 -0.094172 0.786865 0 0 0
-3.156552 0.150604 4.874190 0 0 0
-2.926365 0.515084 4.550733 0 0 0
-2.791509 0.683924 4.401141 0 0 0
-2.928398 0.408285 4.652645 0 0 0
-2.928398 0.408285 4.652645 0 0 0
-2.892304 0.471686 4.596851 0 0 0
-2.766251 0.679181 4.411278 0 0 0
-3.121917 0.032555 4.990718 0 0 0
-3.052921 0.148261 4.883793 0 0 0
-3.128238 0.009492 5.006602 0 0 0
-2.992236 0.249878 4.789827 0 0 0
-3.088715 0.024823 4.999136 0 0 0
-2.510411 1.066117 4.060665 0 0 0
-2.814255 0.502745 4.570562 0 0 0
-3.218234 -0.251916 5.233767 0 0 0
-3.070394 0.010723 5.004908 0 0 0
-2.664029 0.713615 4.387195 0 0 0
-2.664029 0.713615 4.387195 0 0 0
-2.655742 0.700391 4.397156 0 0 0
-2.842268 0.344867 4.723788 0 0 0
-2.799891 0.409517 4.670596 0 0 0
-2.468622 0.984932 4.144989 0 0 0
-3.105894 -0.219288 5.227936 0 0 0
-3.105894 -0.219288 5.227936 0 0 0
-3.038084 -0.103782 5.121258 0 0 0
-2.606132 0.704907 4.399112 0 0 0
-2.606132 0.704907 4.399112 0 0 0
-2.590899 0.710772 4.396321 0 0 0
-3.097195 -0.318151 5.308693 0 0 0
-3.097195 -0.318151 5.308693 0 0 0
-2.466034 0.882957 4.230586 0 0 0
-3.081281 -0.305793 5.308205 0 0 0
-2.386879 1.016789 4.112363 0 0 0
-2.933738 -0.047914 5.076018 0 0 0
-2.790990 0.229844 4.840290 0 0 0
-2.447025 0.849523 4.268403 0 0 0
-3.035504 -0.322126 5.324331 0 0 0
-2.567496 0.584950 4.514146 0 0 0
-2.567496 0.584950 4.514146 0 0 0
-2.957933 -0.282351 5.283862 0 0 0
-2.893635 -0.215798 5.238800 0 0 0
-2.921680 -0.344675 5.354120 0 0 0
-2.962556 -0.439346 5.433982 0 0 0
-2.354623 0.809157 4.315129 0 0 0
-2.414232 0.683055 4.429909 0 0 0
-2.337378 0.780340 4.346224 0 0 0
-2.321028 0.749755 4.373480 0 0 0
-2.347491 0.690062 4.426815 0 0 0
-2.847179 -0.378030 5.393134 0 0 0
-2.322796 0.719066 4.395572 0 0 0
-2.166303 1.011121 4.124933 0 0 0
-2.301957 0.727065 4.397458 0 0 0
-2.135166 1.035749 4.104876 0 0 0
-2.124034 1.017497 4.120843 0 0 0
-2.084087 1.008410 4.132115 0 0 0
-2.055039 0.992906 4.142682 0 0 0
-2.176689 0.704306 4.419886 0 0 0
-2.008043 0.919063 4.220194 0 0 0
-2.436979 -0.194953 5.255633 0 0 0
-1.973580 0.819596 4.312186 0 0 0
-1.856684 1.083343 4.062420 0 0 0
-1.962384 0.800247 4.330902 0 0 0
-1.841429 0.771996 4.357628 0 0 0
-1.548996 1.039360 4.111195 0 0 0
-1.422867 1.259635 3.904063 0 0 0
-1.446203 0.998928 4.149528 0 0 0
-1.333162 1.149917 4.008479 0 0 0
-1.221743 1.255225 3.910114 0 0 0
-1.297439 0.272612 5.317815 0 0 0
0.911566 -0.697337 -3.006328 0 0 0
-1.268910 1.007843 4.142840 0 0 0
-1.254524 0.986394 4.166195 0 0 0
-1.162081 1.054738 4.099393 0 0 0
-1.162081 1.054738 4.099393 0 0 0
-1.155557 1.041972 4.116161 0 0 0
-1.155557 1.041972 4.116161 0 0 0
-4.715689 4.183787 17.189960 0 0 0
-1.251425 -0.168815 4.742871 0 0 0
-1.006866 1.130182 4.036285 0 0 0
-1.006866 1.130182 4.036285 0 0 0
-0.981891 1.211288 3.961922 0 0 0
-0.994923 1.138757 4.026626 0 0 0
-0.994923 1.138757 4.026626 0 0 0
-0.965439 1.175709 3.992662 0 0 0
-1.130918 -0.594008 4.821677 0 0 0
-0.948619 1.127865 4.037000 0 0 0
-1.084872 -0.202038 4.725712 0 0 0
-1.068865 0.014081 4.760528 0 0 0
-1.052082 -0.270954 4.718627 0 0 0
-1.052082 -0.270954 4.718627 0 0 0
-0.888650 1.158254 4.014260 0 0 0
-1.070577 0.022812 4.941337 0 0 0
-0.825522 1.352221 3.817410 0 0 0
-0.868491 1.136503 4.031451 0 0 0
-0.841106 1.185863 3.990527 0 0 0
-0.999604 -0.195531 4.750045 0 0 0
-0.812710 1.218325 3.950565 0 0 0
-0.799624 1.197057 3.969332 0 0 0
-0.951440 -0.616182 4.850840 0 0 0
-0.918829 -0.373999 4.782551 0 0 0
-0.772874 1.154993 4.011914 0 0 0
-0.941887 -0.684552 4.956059 0 0 0
-0.924312 -0.621461 4.872898 0 0 0
-0.735139 1.066376 4.104616 0 0 0
-0.787725 0.258729 4.618546 0 0 0
-0.611707 1.272923 3.908243 0 0 0
-0.671532 -0.075921 3.706521 0 0 0
-0.563153 1.187861 3.989782 0 0 0
-0.599482 0.231075 4.445336 0 0 0
-1.194002 2.550530 8.727895 0 0 0
-0.603215 -0.959354 4.897969 0 0 0
-0.515268 -0.124292 4.533180 0 0 0
-0.531541 -0.805083 4.681151 0 0 0
-0.456411 1.149515 4.027187 0 0 0
-0.448790 1.183484 4.002522 0 0 0
-0.475585 -0.296536 4.703938 0 0 0
-0.378588 1.305443 3.892684 0 0 0
-0.457600 -0.793090 4.719664 0 0 0
-0.449348 -0.329437 4.715335 0 0 0
-0.361909 1.304377 3.894186 0 0 0
-0.439603 -0.330842 4.796918 0 0 0
-0.150651 -0.263170 2.433155 0 0 0
-0.377748 -0.265238 4.681685 0 0 0
-0.378169 -0.257463 4.711065 0 0 0
-0.361987 -0.265338 4.798979 0 0 0
-0.316218 -1.074933 4.498818 0 0 0
-0.309872 -1.030115 4.492169 0 0 0
-0.229435 -1.167087 4.533073 0 0 0
-0.229435 -1.167087 4.533073 0 0 0
-0.194057 1.295780 3.918599 0 0 0
-0.159274 -0.865401 4.502217 0 0 0
-0.101372 -0.491948 4.410946 0 0 0
-0.085468 -0.916808 4.490669 0 0 0
-0.085468 -0.916808 4.490669 0 0 0
-0.073258 -1.168065 4.491015 0 0 0
-0.071956 -0.937924 4.489343 0 0 0
-0.044243 -0.291994 4.357482 0 0 0
-0.032785 -0.991124 4.493520 0 0 0
-0.024991 -1.086770 4.486565 0 0 0
-0.013808 -1.170604 4.502746 0 0 0
0.005441 -1.180231 4.523892 0 0 0
0.010803 -0.341926 4.315447 0 0 0
0.024622 1.328630 3.908740 0 0 0
0.067178 0.258583 4.569238 0 0 0
0.065439 -0.385364 4.319656 0 0 0
0.088015 0.185815 4.516901 0 0 0
0.291714 -2.397941 15.496298 0 0 0
0.168668 0.064863 4.518113 0 0 0
0.165702 1.358543 3.896947 0 0 0
0.165702 1.358543 3.896947 0 0 0
0.255520 -0.686800 4.529975 0 0 0
0.263725 -0.038731 4.602329 0 0 0
0.279599 -0.428259 4.340108 0 0 0
0.345933 0.086204 4.475918 0 0 0
0.355540 0.011716 4.571418 0 0 0
0.339073 -0.353485 4.349083 0 0 0
0.518113 -0.403391 4.232972 0 0 0
0.410262 1.466879 3.817534 0 0 0
0.600617 -0.816612 5.439362 0 0 0
-0.084445 -0.323351 -2.135109 0 0 0
0.664091 -1.050206 5.618577 0 0 0
0.687187 -0.242929 4.752459 0 0 0
-0.507112 -1.758711 -4.058606 0 0 0
0.841632 -0.097545 4.600977 0 0 0
0.923236 0.278318 5.022895 0 0 0
0.917495 -0.148266 4.575711 0 0 0
0.947616 0.049708 4.595058 0 0 0
1.149942 -0.697156 5.370502 0 0 0
1.167035 -0.719170 5.386839 0 0 0
1.244196 -0.726169 5.418768 0 0 0
1.244196 -0.726169 5.418768 0 0 0
1.059570 -0.022275 4.605519 0 0 0
1.232093 -0.659439 5.341638 0 0 0
1.232093 -0.659439 5.341638 0 0 0
1.111106 -0.066059 4.619097 0 0 0
1.318394 1.371867 3.993250 0 0 0
1.370777 1.279250 4.081377 0 0 0
1.999683 0.610772 5.537312 0 0 0
1.424103 1.239961 4.128249 0 0 0
1.463712 1.151390 4.221771 0 0 0
1.603767 0.843487 4.548372 0 0 0
1.443420 1.286751 4.082365 0 0 0
1.457512 1.261641 4.110514 0 0 0
1.702055 0.699220 4.696206 0 0 0
1.702055 0.699220 4.696206 0 0 0
1.810059 0.414867 4.984165 0 0 0
1.715662 0.676816 4.718416 0 0 0
1.715662 0.676816 4.718416 0 0 0
3.076660 0.077488 7.700719 0 0 0
1.491615 1.292494 4.079169 0 0 0
1.783079 0.534263 4.868609 0 0 0
1.783079 0.534263 4.868609 0 0 0
-0.434307 -0.419929 -1.372341 0 0 0
1.612760 0.993281 4.391057 0 0 0
1.902646 0.330117 5.081019 0 0 0
1.836628 0.527898 4.885161 0 0 0
1.770098 0.688415 4.711211 0 0 0
1.770098 0.688415 4.711211 0 0 0
-0.634965 -0.369152 -1.365266 0 0 0
1.891721 0.395570 5.018434 0 0 0
1.942872 0.268023 5.143761 0 0 0
1.600944 1.145491 4.234659 0 0 0
2.016765 0.100123 5.320736 0 0 0
1.611455 1.129956 4.248007 0 0 0
1.611455 1.129956 4.248007 0 0 0
1.582487 1.215545 4.165235 0 0 0
1.919845 0.366198 5.045728 0 0 0
1.825517 0.675788 4.727443 0 0 0
-0.382643 -0.474862 -1.123860 0 0 0
1.998295 0.295268 5.120638 0 0 0
1.556030 1.383934 3.973141 0 0 0
1.640279 1.206143 4.178819 0 0 0
1.649376 1.186173 4.192833 0 0 0
1.607300 1.297254 4.064141 0 0 0
1.701594 1.116908 4.273067 0 0 0
2.122917 0.131466 5.297906 0 0 0
2.083283 0.228404 5.196060 0 0 0
1.815564 0.884408 4.514439 0 0 0
1.957401 0.571380 4.844691 0 0 0
1.757083 1.085683 4.299663 0 0 0
1.890576 0.790513 4.614601 0 0 0
1.625953 1.396650 3.957421 0 0 0
1.640827 1.382133 3.983309 0 0 0
1.784937 1.072016 4.321517 0 0 0
1.798968 1.044493 4.346131 0 0 0
2.166741 0.240686 5.191181 0 0 0
2.200333 0.177052 5.253069 0 0 0
1.842013 1.004161 4.393235 0 0 0
1.952258 0.912970 4.485958 0 0 0
2.054677 0.788505 4.630159 0 0 0
2.145287 0.597640 4.827799 0 0 0
1.904348 1.191984 4.193235 0 0 0
1.819111 1.353118 4.001914 0 0 0
2.274088 0.632466 4.796384 0 0 0
2.192341 0.806219 4.614632 0 0 0
2.352300 0.497400 4.937250 0 0 0
-1.429678 -0.656900 -3.168633 0 0 0
2.458375 0.322532 5.116264 0 0 0
1.981280 1.253792 4.114442 0 0 0
2.213171 0.903444 4.510434 0 0 0
2.402180 0.633374 4.805623 0 0 0
2.225452 0.958071 4.445772 0 0 0
2.225452 0.958071 4.445772 0 0 0
2.218671 0.972896 4.432725 0 0 0
2.395866 0.734382 4.693048 0 0 0
2.371581 0.869073 4.541970 0 0 0
2.454604 0.733604 4.689164 0 0 0
2.520529 0.649629 4.780088 0 0 0
2.470037 0.818577 4.600642 0 0 0
2.449285 0.851065 4.559739 0 0 0
2.550053 0.693830 4.724561 0 0 0
2.610937 0.637915 4.786193 0 0 0
2.709956 0.523837 4.917325 0 0 0
-1.194646 -0.441081 -2.227789 0 0 0
2.934866 0.367212 5.089329 0 0 0
-1.431612 -0.680908 -2.217384 0 0 0
-3.347484 -0.012526 4.994238 0 0 0
-3.065315 0.395744 4.646039 0 0 0
-3.199743 0.132039 4.876957 0 0 0
-2.997602 0.465983 4.583740 0 0 0
-3.243552 0.009055 4.989112 0 0 0
-2.916618 0.534065 4.537299 0 0 0
-3.527318 -0.612535 5.506579 0 0 0
-3.273805 -0.174545 5.163003 0 0 0
-3.490018 -0.710583 5.619753 0 0 0
-2.701636 0.729197 4.362412 0 0 0
-3.099517 0.004936 5.013532 0 0 0
-3.099517 0.004936 5.013532 0 0 0
-2.746014 0.646860 4.443896 0 0 0
-2.670990 0.761679 4.341186 0 0 0
-4.445989 0.458966 7.731597 0 0 0
-2.646691 0.769270 4.333667 0 0 0
-2.646691 0.769270 4.333667 0 0 0
-2.800281 0.477974 4.599410 0 0 0
-2.680781 0.694924 4.402635 0 0 0
-2.892133 0.289202 4.769005 0 0 0
-2.456198 1.065271 4.054892 0 0 0
-3.185569 -0.303866 5.285710 0 0 0
-3.046564 -0.077203 5.096328 0 0 0
-3.046564 -0.077203 5.096328 0 0 0
-2.957977 0.044803 4.995976 0 0 0
-2.957977 0.044803 4.995976 0 0 0
-2.962773 -0.005672 5.037425 0 0 0
-2.672076 0.535964 4.556113 0 0 0
-2.672076 0.535964 4.556113 0 0 0
-2.603100 0.647968 4.450543 0 0 0
-8.179804 1.824262 13.798407 0 0 0
-8.179804 1.824262 13.798407 0 0 0
-3.058969 -0.288763 5.292513 0 0 0
-2.566209 0.633117 4.472602 0 0 0
-3.205629 -0.257582 5.616296 0 0 0
-2.979340 -0.203495 5.220731 0 0 0
-3.016131 -0.353161 5.353597 0 0 0
-2.857081 -0.027361 5.064262 0 0 0
-2.951510 -0.260057 5.276624 0 0 0
-2.479535 0.683278 4.424184 0 0 0
-2.993113 -0.401659 5.410874 0 0 0
-2.888199 -0.194052 5.233919 0 0 0
-2.888199 -0.194052 5.233919 0 0 0
-2.810110 -0.115164 5.162375 0 0 0
-2.426259 0.608358 4.499305 0 0 0
-2.426259 0.608358 4.499305 0 0 0
-2.261438 0.873856 4.259998 0 0 0
-2.840540 -0.477538 5.480806 0 0 0
-2.768592 -0.493890 5.506463 0 0 0
-2.146611 0.730845 4.396171 0 0 0
-2.076882 0.749938 4.378975 0 0 0
-2.076882 0.749938 4.378975 0 0 0
-2.483369 -0.280203 5.328438 0 0 0
-2.483369 -0.280203 5.328438 0 0 0
-1.995119 0.850967 4.281462 0 0 0
-1.916670 0.943947 4.200479 0 0 0
-1.975511 0.785704 4.335751 0 0 0
-1.896028 0.845907 4.288282 0 0 0
-1.704638 0.877585 4.260016 0 0 0
-1.602359 1.147951 4.005763 0 0 0
-1.121944 0.559221 3.073782 0 0 0
-1.475175 1.123299 4.029679 0 0 0
-1.413033 1.241775 3.916731 0 0 0
-1.418722 1.093318 4.059084 0 0 0
-1.384158 1.158126 4.000070 0 0 0
-1.370055 1.167825 3.986927 0 0 0
-1.403029 0.873225 4.273800 0 0 0
-1.283897 1.224762 3.935653 0 0 0
-1.283897 1.224762 3.935653 0 0 0
-1.274017 1.242533 3.921716 0 0 0
-1.803551 1.184722 5.613445 0 0 0
-1.346202 0.935516 4.211780 0 0 0
-0.274170 0.035906 1.036332 0 0 0
-1.165901 1.373410 3.804746 0 0 0
-1.914591 1.383664 6.286498 0 0 0
-1.171504 1.253505 3.915929 0 0 0
-1.171504 1.253505 3.915929 0 0 0
-1.215832 1.058699 4.097719 0 0 0
-1.205942 1.080457 4.075926 0 0 0
-0.297567 0.157589 1.197840 0 0 0
-1.189371 1.088688 4.067519 0 0 0
-1.189371 1.088688 4.067519 0 0 0
-1.184561 1.054257 4.098014 0 0 0
-1.204498 0.932668 4.211864 0 0 0
-1.104194 1.328042 3.845069 0 0 0
-1.104194 1.328042 3.845069 0 0 0
-1.140285 1.154129 4.007212 0 0 0
-1.179253 1.004371 4.148818 0 0 0
-1.179253 1.004371 4.148818 0 0 0
-1.136125 1.106755 4.053709 0 0 0
-1.167220 0.979259 4.175910 0 0 0
-1.167220 0.979259 4.175910 0 0 0
-1.151052 0.992405 4.163231 0 0 0
-1.151052 0.992405 4.163231 0 0 0
-1.117224 1.107064 4.055081 0 0 0
-1.104553 1.119393 4.037363 0 0 0
-1.104778 1.047962 4.108758 0 0 0
-1.035854 1.290679 3.884019 0 0 0
-1.043359 1.193824 3.976002 0 0 0
-1.043359 1.193824 3.976002 0 0 0
-1.029680 1.168289 3.997586 0 0 0
-1.043306 1.028741 4.131239 0 0 0
-1.005677 1.163472 4.004692 0 0 0
-1.005677 1.163472 4.004692 0 0 0
-1.200473 0.014407 4.894099 0 0 0
-0.920035 1.305900 3.873403 0 0 0
-0.904867 1.285687 3.892319 0 0 0
0.422917 -0.681047 -5.205506 0 0 0
-1.100973 -0.870446 5.399219 0 0 0
-0.772417 1.240633 3.929166 0 0 0
-0.681836 -0.894953 3.883678 0 0 0
-0.734781 1.321179 3.854116 0 0 0
-0.733362 1.143462 4.025373 0 0 0
-0.601094 1.255111 3.921478 0 0 0
-0.550977 1.240916 3.943210 0 0 0
-0.486285 1.389282 3.804933 0 0 0
-0.486285 1.389282 3.804933 0 0 0
-0.453108 1.307194 3.888275 0 0 0
-0.434259 1.307785 3.886401 0 0 0
-0.501278 -0.428311 4.573798 0 0 0
-0.478007 -0.190264 4.576959 0 0 0
-0.307160 0.872573 3.043666 0 0 0
-0.468868 -0.643338 4.560389 0 0 0
-0.408911 1.182029 4.004976 0 0 0
-0.342378 1.273444 3.924041 0 0 0
-0.369821 0.080582 4.413924 0 0 0
-0.347719 -0.290275 4.772174 0 0 0
-0.328022 -0.497468 4.615910 0 0 0
-0.321726 -0.135832 4.538449 0 0 0
-0.107790 -0.257934 2.729140 0 0 0
-0.295555 -0.265962 4.702265 0 0 0
-0.256240 -1.274061 4.600835 0 0 0
-0.195697 -1.267589 4.577464 0 0 0
-0.178210 -1.300455 4.622210 0 0 0
-0.124087 -0.959480 4.481466 0 0 0
-0.072954 -0.022874 4.588674 0 0 0
-0.059915 -0.383287 4.354564 0 0 0
-0.046072 -1.053760 4.496042 0 0 0
0.018224 1.342708 3.892145 0 0 0
0.121385 -1.144280 4.636693 0 0 0
0.118154 1.526956 3.724659 0 0 0
0.197442 1.393416 3.858863 0 0 0
0.982811 7.337615 19.829159 0 0 0
0.360706 -0.857264 5.034057 0 0 0
0.278927 1.410216 3.858714 0 0 0
0.362760 -0.005842 4.551382 0 0 0
0.362760 -0.005842 4.551382 0 0 0
0.406089 0.150800 4.471816 0 0 0
0.561467 -0.870917 5.445026 0 0 0
0.410520 1.425478 3.852916 0 0 0
0.647458 -1.081563 5.659475 0 0 0
0.653587 -0.987318 5.568178 0 0 0
0.519904 1.531995 3.765815 0 0 0
32.180033 3.349403 261.373487 0 0 0
1.091043 -0.734453 5.405094 0 0 0
1.091043 -0.734453 5.405094 0 0 0
1.122754 -0.758749 5.432549 0 0 0
1.234265 -0.686637 5.355908 0 0 0
1.232176 -0.637085 5.329040 0 0 0
1.104749 -0.100370 4.616524 0 0 0
1.377873 1.244495 4.122106 0 0 0
1.290528 1.513171 3.836137 0 0 0
1.317767 1.468455 3.882710 0 0 0
1.373974 1.315069 4.044311 0 0 0
1.500657 1.205107 4.171840 0 0 0
1.483475 1.336972 4.027877 0 0 0
1.697399 0.805704 4.590195 0 0 0
1.404036 1.546508 3.787626 0 0 0
-0.439604 -0.408239 -1.357112 0 0 0
1.754945 0.707966 4.688018 0 0 0
1.754945 0.707966 4.688018 0 0 0
1.477576 1.445142 3.926905 0 0 0
1.788479 0.658533 4.742310 0 0 0
1.552821 1.255801 4.111770 0 0 0
1.948248 0.330528 5.084748 0 0 0
1.980180 0.284376 5.122288 0 0 0
1.663935 1.087246 4.301000 0 0 0
1.854713 0.625527 4.777215 0 0 0
1.498041 1.486024 3.861178 0 0 0
1.516157 1.454701 3.896515 0 0 0
1.557591 1.419173 3.975588 0 0 0
1.867488 0.641364 4.765451 0 0 0
1.624574 1.252096 4.125422 0 0 0
2.093884 0.143488 5.286119 0 0 0
1.945246 0.502228 4.910087 0 0 0
1.985576 0.449253 4.968809 0 0 0
1.966645 0.492068 4.905804 0 0 0
1.966645 0.492068 4.905804 0 0 0
1.836164 0.856160 4.546647 0 0 0
1.785493 0.965602 4.424230 0 0 0
2.018932 0.428557 4.988093 0 0 0
2.062611 0.343919 5.073370 0 0 0
2.050807 0.390622 5.033105 0 0 0
1.760280 1.115819 4.275835 0 0 0
2.107041 0.316858 5.112060 0 0 0
2.188375 0.200912 5.240183 0 0 0
2.188375 0.200912 5.240183 0 0 0
2.092611 0.403288 5.010498 0 0 0
1.857405 0.967184 4.427971 0 0 0
2.183497 0.248122 5.188224 0 0 0
2.166620 0.284825 5.144410 0 0 0
2.218279 0.190953 5.248496 0 0 0
2.237301 0.153030 5.285622 0 0 0
2.164067 0.331479 5.098426 0 0 0
2.343661 -0.050844 5.500111 0 0 0
2.165322 0.529528 4.894965 0 0 0
2.145098 0.628283 4.796696 0 0 0
1.930687 1.077027 4.315002 0 0 0
2.191269 0.575715 4.844542 0 0 0
1.799834 1.385994 3.965168 0 0 0
1.799834 1.385994 3.965168 0 0 0
1.827993 1.338147 4.022731 0 0 0
1.827993 1.338147 4.022731 0 0 0
1.953140 1.137922 4.261124 0 0 0
1.831062 1.360663 3.994849 0 0 0
1.850123 1.334080 4.029559 0 0 0
1.863556 1.316287 4.051298 0 0 0
1.885086 1.274558 4.093221 0 0 0
1.975093 1.118062 4.269894 0 0 0
1.929432 1.269116 4.103301 0 0 0
1.948602 1.233526 4.137930 0 0 0
1.965718 1.204849 4.169371 0 0 0
2.156823 0.867449 4.543163 0 0 0
2.501385 0.253223 5.209848 0 0 0
2.554993 0.227132 5.233449 0 0 0
2.059095 1.158808 4.222386 0 0 0
2.322454 0.745746 4.689736 0 0 0
2.243140 0.907231 4.505044 0 0 0
2.285045 0.846740 4.566353 0 0 0
2.446604 0.557796 4.880836 0 0 0
2.355908 0.816514 4.598371 0 0 0
2.372071 0.793880 4.619878 0 0 0
2.430017 0.771175 4.646586 0 0 0
2.611215 0.482603 4.971502 0 0 0
2.621411 0.457886 4.986838 0 0 0
2.569170 0.569449 4.870364 0 0 0
2.599889 0.577458 4.859124 0 0 0
2.674461 0.510210 4.939448 0 0 0
2.524900 0.748442 4.666991 0 0 0
2.660518 0.561131 4.869549 0 0 0
2.592615 0.714397 4.713232 0 0 0
2.828486 0.524953 4.916916 0 0 0
2.828486 0.524953 4.916916 0 0 0
2.904370 0.409176 5.033996 0 0 0
3.011040 0.244721 5.213259 0 0 0
3.054927 0.212111 5.250898 0 0 0
-0.968413 -0.459516 -1.702045 0 0 0
-0.505895 -0.398583 -0.806419 0 0 0
-3.020280 0.446682 4.605357 0 0 0
-3.150245 0.094909 4.928734 0 0 0
-2.806260 0.694042 4.389831 0 0 0
-2.806260 0.694042 4.389831 0 0 0
-3.554975 -0.871277 5.753594 0 0 0
-2.754058 0.603710 4.495530 0 0 0
-2.519321 0.972209 4.146774 0 0 0
-3.064082 -0.045380 5.060191 0 0 0
-2.582618 0.798234 4.311115 0 0 0
-2.582618 0.798234 4.311115 0 0 0
-2.442149 1.047569 4.078386 0 0 0
-2.527350 0.879838 4.230599 0 0 0
-2.699648 0.532449 4.554362 0 0 0
-3.286001 -0.623720 5.576700 0 0 0
-2.643596 0.550785 4.542948 0 0 0
-2.513849 0.749523 4.355868 0 0 0
-4.471221 0.211325 7.136870 0 0 0
-2.380960 0.737242 4.371578 0 0 0
-2.397945 0.607676 4.510320 0 0 0
-2.140144 1.004297 4.136386 0 0 0
-2.626352 -0.111772 5.165255 0 0 0
-2.733274 -0.657079 5.647928 0 0 0
-2.130096 0.711563 4.411045 0 0 0
-1.992900 0.895133 4.240795 0 0 0
-2.641754 -0.802778 5.796629 0 0 0
-1.868963 1.036922 4.108034 0 0 0
-1.996211 0.726022 4.402258 0 0 0
-1.950630 0.826307 4.304506 0 0 0
-1.870923 0.848018 4.290425 0 0 0
-1.621963 1.181019 3.972578 0 0 0
-1.489369 1.107513 4.046769 0 0 0
-1.453633 1.195682 3.961643 0 0 0
-1.344439 1.276110 3.884337 0 0 0
-1.437258 0.930849 4.219058 0 0 0
-1.416089 0.951432 4.194252 0 0 0
-1.346667 1.079688 4.077606 0 0 0
-1.298076 1.244457 3.921143 0 0 0
-1.298076 1.244457 3.921143 0 0 0
-2.747182 1.807014 8.313442 0 0 0
-1.389650 0.900269 4.246979 0 0 0
-1.337783 1.061970 4.094651 0 0 0
-1.317548 1.077506 4.076750 0 0 0
-1.274149 1.212969 3.948581 0 0 0
-1.274149 1.212969 3.948581 0 0 0
-1.807898 1.192469 5.623324 0 0 0
-1.224836 1.206927 3.957407 0 0 0
-1.228647 1.163828 3.998682 0 0 0
-1.228647 1.163828 3.998682 0 0 0
-1.204907 1.223509 3.937481 0 0 0
-1.227408 1.121655 4.037593 0 0 0
-1.916939 1.387856 6.295870 0 0 0
-1.180040 1.177619 3.985052 0 0 0
-1.162651 1.199069 3.960412 0 0 0
-1.161821 1.149677 4.014195 0 0 0
-1.161821 1.149677 4.014195 0 0 0
-1.153888 1.168524 3.994130 0 0 0
-1.130993 1.180393 3.984797 0 0 0
-1.108661 1.239104 3.927668 0 0 0
-1.090437 1.307980 3.864509 0 0 0
-1.096879 1.275270 3.897368 0 0 0
-1.118633 1.165963 3.998516 0 0 0
-1.110201 1.191044 3.973143 0 0 0
-1.070648 1.274984 3.897170 0 0 0
-1.070648 1.274984 3.897170 0 0 0
-1.074418 1.126474 4.043534 0 0 0
-1.092580 1.025024 4.132339 0 0 0
-5.717887 5.408720 21.588767 0 0 0
-0.970047 1.383206 3.799723 0 0 0
-1.004922 1.211612 3.959399 0 0 0
-1.004922 1.211612 3.959399 0 0 0
-2.459922 2.360776 9.629926 0 0 0
-0.995503 1.004891 4.156183 0 0 0
-1.141900 -0.666005 4.910704 0 0 0
-0.932506 1.076221 4.092806 0 0 0
-1.104689 -0.690834 4.931172 0 0 0
-0.890778 1.203246 3.972331 0 0 0
-0.394373 0.436860 1.905142 0 0 0
-0.904943 1.034355 4.141280 0 0 0
-0.823441 1.142822 4.032767 0 0 0
-0.763104 1.321961 3.850641 0 0 0
-0.650098 1.342779 3.837485 0 0 0
-0.619637 1.478755 3.709247 0 0 0
-0.523615 1.330988 3.859175 0 0 0
-0.527035 -0.491625 4.549650 0 0 0
-0.491682 -0.634926 4.555791 0 0 0
-0.491682 -0.634926 4.555791 0 0 0
-0.496224 -0.214844 4.613843 0 0 0
-0.462546 -0.472065 4.562324 0 0 0
-0.430267 -0.285568 4.699249 0 0 0
-0.363320 -0.142547 4.531521 0 0 0
-0.363320 -0.142547 4.531521 0 0 0
-0.266521 0.093447 4.441722 0 0 0
-0.256090 -0.000908 4.494395 0 0 0
-0.238436 -0.180598 4.625466 0 0 0
-0.169331 -0.832853 4.530687 0 0 0
-0.143596 -1.271687 4.605504 0 0 0
-0.014296 1.536974 3.701114 0 0 0
-0.012860 1.402826 3.830003 0 0 0
-0.012860 1.402826 3.830003 0 0 0
-0.001597 -1.025718 4.484096 0 0 0
0.012458 1.484863 3.752685 0 0 0
0.012458 1.484863 3.752685 0 0 0
0.032607 1.446006 3.796462 0 0 0
0.032607 1.446006 3.796462 0 0 0
0.046821 -1.038095 4.526187 0 0 0
0.046315 1.421725 3.820325 0 0 0
0.046315 1.421725 3.820325 0 0 0
0.050032 1.456034 3.792525 0 0 0
0.061434 1.395718 3.843253 0 0 0
0.061694 1.435995 3.810116 0 0 0
0.075859 1.335575 3.911674 0 0 0
0.078764 1.406399 3.838118 0 0 0
0.120219 1.351187 3.899251 0 0 0
0.114897 1.572560 3.683699 0 0 0
0.114897 1.572560 3.683699 0 0 0
0.180057 1.544748 3.716479 0 0 0
0.192675 1.558396 3.707717 0 0 0
0.212585 1.404487 3.854889 0 0 0
0.223836 1.382139 3.875882 0 0 0
0.223938 1.508680 3.761041 0 0 0
0.234398 1.410763 3.849062 0 0 0
0.234398 1.410763 3.849062 0 0 0
0.264648 -0.340912 4.341728 0 0 0
0.267453 1.395700 3.867173 0 0 0
0.266064 1.397501 3.866010 0 0 0
0.398009 -0.005927 4.548320 0 0 0
0.430350 -0.000455 4.554717 0 0 0
0.108355 -0.154435 1.484291 0 0 0
0.707769 -1.004748 5.591134 0 0 0
0.816636 -0.667648 5.520595 0 0 0
0.828017 -0.620886 5.527265 0 0 0
0.572693 1.477481 3.822143 0 0 0
0.746498 -0.001364 4.660584 0 0 0
1.120267 -0.681037 5.355858 0 0 0
1.175081 -0.632439 5.309220 0 0 0
1.065602 -0.147907 4.607642 0 0 0
1.246513 -0.444512 4.939893 0 0 0
1.258092 -0.414559 4.892993 0 0 0
1.320907 -0.040995 4.868930 0 0 0
1.289367 1.421810 3.936368 0 0 0
1.360595 1.266038 4.096650 0 0 0
1.268773 1.539541 3.803865 0 0 0
1.390004 1.221332 4.140138 0 0 0
1.357600 1.398408 3.957061 0 0 0
1.370247 1.419664 3.939901 0 0 0
1.498099 1.120788 4.247516 0 0 0
1.747183 0.566932 4.826491 0 0 0
1.747183 0.566932 4.826491 0 0 0
1.534284 1.251165 4.127280 0 0 0
1.500565 1.342659 4.021578 0 0 0
1.500565 1.342659 4.021578 0 0 0
1.711995 0.824690 4.577040 0 0 0
1.697771 0.881441 4.503713 0 0 0
1.697771 0.881441 4.503713 0 0 0
1.507604 1.369894 3.994803 0 0 0
1.494914 1.393061 3.967846 0 0 0
2.039216 0.028353 5.392123 0 0 0
1.432396 1.592403 3.732943 0 0 0
1.449220 1.563118 3.770136 0 0 0
2.124273 -0.084932 5.509320 0 0 0
2.124273 -0.084932 5.509320 0 0 0
1.840639 0.658174 4.758776 0 0 0
1.840639 0.658174 4.758776 0 0 0
1.474792 1.532963 3.813786 0 0 0
1.533364 1.403295 3.958832 0 0 0
1.932103 0.455670 4.958896 0 0 0
1.570350 1.339364 4.028781 0 0 0
1.927528 0.555119 4.843004 0 0 0
2.083460 0.356413 5.067746 0 0 0
2.083460 0.356413 5.067746 0 0 0
2.052777 0.484213 4.938422 0 0 0
2.092786 0.458239 4.968211 0 0 0
2.325574 -0.063130 5.514978 0 0 0
1.963990 0.826428 4.589130 0 0 0
1.785470 1.202814 4.170935 0 0 0
1.880340 1.013055 4.381228 0 0 0
1.893224 0.981610 4.403209 0 0 0
1.708158 1.405379 3.947935 0 0 0
2.042565 0.744007 4.678768 0 0 0
2.053530 0.716808 4.699155 0 0 0
1.938447 0.993879 4.405059 0 0 0
1.938447 0.993879 4.405059 0 0 0
1.902979 1.127632 4.261027 0 0 0
2.305152 0.502639 4.934476 0 0 0
1.961475 1.305597 4.158754 0 0 0
2.107234 1.111937 4.268657 0 0 0
2.255786 0.938796 4.473298 0 0 0
2.544435 0.576217 4.865929 0 0 0
2.587969 0.501774 4.928740 0 0 0
2.483923 0.724943 4.701484 0 0 0
2.406574 0.886890 4.524063 0 0 0
2.723125 0.398166 5.038044 0 0 0
2.824538 0.296593 5.178914 0 0 0
-9.543875 -5.834791 -19.883581 0 0 0
3.293538 -0.325293 5.840393 0 0 0
3.113080 0.036199 5.440916 0 0 0
2.841073 0.485398 4.956880 0 0 0
2.960155 0.361294 5.088897 0 0 0
3.575642 -0.337380 5.856258 0 0 0
3.401999 -0.017228 5.491454 0 0 0
4.022494 -0.822370 6.370007 0 0 0
-1.861550 0.733206 2.988299 0 0 0
-3.199132 0.000079 5.009826 0 0 0
-3.199132 0.000079 5.009826 0 0 0
-2.818054 0.630875 4.458293 0 0 0
-3.405812 -0.471245 5.418014 0 0 0
-2.783685 0.656069 4.433544 0 0 0
-3.010237 0.161127 4.864005 0 0 0
-2.932152 0.303814 4.754942 0 0 0
-2.932152 0.303814 4.754942 0 0 0
-3.140995 -0.094903 5.109169 0 0 0
-3.140995 -0.094903 5.109169 0 0 0
-2.750075 0.600843 4.487301 0 0 0
-2.616722 0.848001 4.261081 0 0 0
-3.215394 -0.274749 5.259799 0 0 0
-2.857903 0.376557 4.688660 0 0 0
-3.113166 -0.132221 5.140598 0 0 0
-2.968468 0.144140 4.898953 0 0 0
-2.906150 0.258889 4.793104 0 0 0
-2.906150 0.258889 4.793104 0 0 0
-3.321686 -0.629305 5.558333 0 0 0
-3.090010 -0.166682 5.171136 0 0 0
-3.062716 -0.214705 5.223383 0 0 0
-2.786963 0.149031 4.901033 0 0 0
-2.470520 0.780272 4.347869 0 0 0
-2.340465 1.009666 4.115036 0 0 0
-2.735399 -0.039335 5.087843 0 0 0
-2.735399 -0.039335 5.087843 0 0 0
-2.878525 -0.514046 5.522668 0 0 0
-2.313021 0.685697 4.431594 0 0 0
-2.803869 -0.427787 5.444785 0 0 0
-2.803869 -0.427787 5.444785 0 0 0
-2.621865 -0.034315 5.093679 0 0 0
-2.621865 -0.034315 5.093679 0 0 0
-2.073926 1.042368 4.101887 0 0 0
-2.821266 -0.614166 5.629060 0 0 0
-2.585139 -0.091836 5.150231 0 0 0
-2.585139 -0.091836 5.150231 0 0 0
-2.658687 -0.381351 5.405677 0 0 0
-1.642747 0.482781 3.343633 0 0 0
-2.540893 -0.160321 5.210517 0 0 0
-2.015350 0.936879 4.203717 0 0 0
-2.525388 -0.288017 5.336322 0 0 0
-1.974153 0.868247 4.267378 0 0 0
-1.889430 0.896412 4.238795 0 0 0
-2.502708 -0.866041 5.868624 0 0 0
-2.366313 -0.668386 5.700154 0 0 0
-2.366313 -0.668386 5.700154 0 0 0
-2.376266 -0.861748 5.872898 0 0 0
-1.544422 1.217903 3.942093 0 0 0
-1.544422 1.217903 3.942093 0 0 0
-4.089796 -2.397234 11.633568 0 0 0
-1.513240 1.165867 3.987355 0 0 0
-2.268153 -1.038752 6.046256 0 0 0
-1.515993 1.087580 4.066878 0 0 0
-1.469384 1.053046 4.097154 0 0 0
-2.158345 -1.197572 6.197398 0 0 0
-1.410326 1.125312 4.031049 0 0 0
-1.436910 0.929781 4.214446 0 0 0
-1.369257 1.038360 4.111515 0 0 0
-1.250030 1.252373 3.910335 0 0 0
-1.298406 1.047221 4.106800 0 0 0
-2.009115 -1.375361 6.370270 0 0 0
-1.318716 0.944490 4.204966 0 0 0
-0.290787 0.134768 1.121542 0 0 0
-1.289762 0.964603 4.182980 0 0 0
-1.289762 0.964603 4.182980 0 0 0
-1.199715 1.159980 4.005706 0 0 0
-1.168284 1.286891 3.885608 0 0 0
-1.149523 1.076424 4.084201 0 0 0
-0.989656 1.074276 4.089481 0 0 0
-0.989656 1.074276 4.089481 0 0 0
-0.949837 1.106455 4.066018 0 0 0
-1.083720 -0.335497 4.718200 0 0 0
-1.112628 0.156736 4.947568 0 0 0
-0.846771 1.315570 3.864724 0 0 0
-0.809100 1.337423 3.836167 0 0 0
-0.757610 1.265355 3.897550 0 0 0
-0.502647 -0.603673 4.561758 0 0 0
-0.489476 -0.445415 4.575965 0 0 0
-0.440970 -0.448595 4.566639 0 0 0
-0.364048 1.269367 3.931608 0 0 0
-0.383512 -1.120263 4.562638 0 0 0
-0.277262 1.410285 3.802735 0 0 0
-0.229694 -0.012526 4.513256 0 0 0
-0.174596 1.346288 3.871754 0 0 0
-0.195420 -1.239751 4.571387 0 0 0
-0.195420 -1.239751 4.571387 0 0 0
-0.191395 -0.889724 4.482987 0 0 0
-0.177379 -0.834928 4.520442 0 0 0
-0.151260 1.312626 3.905076 0 0 0
-0.151260 1.312626 3.905076 0 0 0
-0.162474 -0.746102 4.618736 0 0 0
-0.108821 1.532474 3.701866 0 0 0
-0.054439 -1.083899 4.496529 0 0 0
-0.020014 -1.065567 4.499930 0 0 0
-0.004695 -1.027693 4.505533 0 0 0
0.034193 1.311555 3.926930 0 0 0
0.032760 1.445550 3.796284 0 0 0
0.032760 1.445550 3.796284 0 0 0
0.072206 -1.065059 4.534709 0 0 0
0.089723 1.480033 3.771533 0 0 0
0.121485 0.067454 4.538851 0 0 0
0.185533 -0.422296 4.320710 0 0 0
0.182383 1.459573 3.797364 0 0 0
0.210827 1.361397 3.886851 0 0 0
0.214411 1.532012 3.729327 0 0 0
0.827419 -0.621004 5.525035 0 0 0
0.708399 0.024488 4.711382 0 0 0
-3.026404 -0.801384 -21.188436 0 0 0
1.220444 -0.732786 5.474434 0 0 0
1.279775 -0.402761 4.838602 0 0 0
1.323333 -0.138833 4.856837 0 0 0
1.468902 1.129528 4.249172 0 0 0
1.420491 1.293900 4.078202 0 0 0
1.444359 1.244239 4.123107 0 0 0
1.800594 0.367648 5.018349 0 0 0
1.442631 1.445521 3.910498 0 0 0
1.442631 1.445521 3.910498 0 0 0
1.729697 0.771282 4.613877 0 0 0
1.779592 0.760968 4.637286 0 0 0
2.081130 0.158111 5.263557 0 0 0
2.023210 0.389973 5.047787 0 0 0
1.762593 1.009630 4.386986 0 0 0
2.654596 -0.944496 6.434218 0 0 0
2.742417 -1.110606 6.612588 0 0 0
2.462932 -0.413003 5.881251 0 0 0
2.462932 -0.413003 5.881251 0 0 0
2.132609 0.328297 5.101280 0 0 0
1.596143 1.546256 3.784814 0 0 0
2.218870 0.238832 5.188546 0 0 0
2.407276 -0.127003 5.574381 0 0 0
2.357341 0.451546 4.974215 0 0 0
3.072688 -0.818360 6.333603 0 0 0
2.942724 -0.522753 6.022209 0 0 0
2.557279 0.399488 5.054050 0 0 0
3.130727 -0.445945 5.963101 0 0 0
-0.448555 -0.384746 -0.906588 0 0 0
2.991938 0.340448 5.104047 0 0 0
8.311453 2.701161 12.803066 0 0 0
3.651447 -0.313842 5.804131 0 0 0
3.968122 -0.722864 6.268168 0 0 0
-1.278359 -0.316800 -2.153734 0 0 0
3.797278 -0.420699 5.923023 0 0 0
-15.790079 1.895099 24.000653 0 0 0
-3.644128 -0.606155 5.487861 0 0 0
-3.246113 0.089980 4.913867 0 0 0
-2.792281 0.802875 4.275696 0 0 0
-2.831133 0.723126 4.348448 0 0 0
-2.769290 0.760001 4.330238 0 0 0
-3.719373 -1.031602 5.874636 0 0 0
-3.013125 0.224645 4.812488 0 0 0
-2.953150 0.335971 4.721610 0 0 0
-2.909463 0.371535 4.687833 0 0 0
-2.909463 0.371535 4.687833 0 0 0
-2.877158 0.428697 4.640373 0 0 0
-2.470658 -0.231625 3.275820 0 0 0
-2.840341 0.474627 4.595084 0 0 0
-3.511915 -0.854258 5.748510 0 0 0
-2.855885 0.263259 4.795071 0 0 0
-2.855885 0.263259 4.795071 0 0 0
-2.785990 0.336975 4.743813 0 0 0
-2.731910 0.351325 4.730857 0 0 0
-2.685001 0.306282 4.775949 0 0 0
-3.233981 -0.872903 5.791075 0 0 0
-3.200035 -0.960062 5.890016 0 0 0
-2.832841 -0.369687 5.388328 0 0 0
-2.728260 -0.162567 5.211883 0 0 0
-2.728260 -0.162567 5.211883 0 0 0
-2.066599 1.146428 4.003691 0 0 0
-2.173595 0.917206 4.215817 0 0 0
-2.043771 0.996560 4.144171 0 0 0
-2.565409 -0.205637 5.245180 0 0 0
-2.565409 -0.205637 5.245180 0 0 0
-1.901952 0.618100 4.025319 0 0 0
-2.561046 -0.454879 5.494035 0 0 0
-2.792943 -1.349948 6.286776 0 0 0
-2.792943 -1.349948 6.286776 0 0 0
7.023606 -4.089055 -16.136531 0 0 0
-2.735527 -1.325582 6.282279 0 0 0
-1.805371 0.996434 4.145588 0 0 0
-2.706699 -1.385648 6.340024 0 0 0
-2.400270 -0.612990 5.644296 0 0 0
-1.763702 0.995992 4.145732 0 0 0
-1.850832 0.763330 4.366551 0 0 0
-2.401222 -0.717394 5.738475 0 0 0
-2.663476 -1.467349 6.409458 0 0 0
-1.600693 1.249633 3.899679 0 0 0
-2.284020 -0.572355 5.610028 0 0 0
-1.754763 0.834582 4.304443 0 0 0
-2.321349 -0.729499 5.753620 0 0 0
20.533017 7.007518 -44.035947 0 0 0
-2.260602 -0.704544 5.733171 0 0 0
-2.229324 -0.650299 5.692296 0 0 0
-2.651528 -2.155182 7.040724 0 0 0
-1.556809 1.004495 4.142775 0 0 0
-2.574704 -2.260229 7.145233 0 0 0
-1.472315 0.983945 4.162502 0 0 0
-1.379240 1.181552 3.984445 0 0 0
-2.049735 -0.957508 5.995327 0 0 0
-2.310735 -1.910614 6.854209 0 0 0
-1.286884 1.307241 3.859516 0 0 0
-2.006305 -1.035770 6.071210 0 0 0
-1.353539 1.012195 4.140693 0 0 0
-1.137709 -0.478359 4.745284 0 0 0
-0.926808 1.149484 4.017329 0 0 0
-1.068387 -0.677473 4.926624 0 0 0
-1.068387 -0.677473 4.926624 0 0 0
-0.851270 -0.291547 4.816877 0 0 0
-0.590130 1.476593 3.711768 0 0 0
-0.740254 -1.088752 4.997695 0 0 0
-0.497434 1.443226 3.756427 0 0 0
-0.445390 -0.182758 4.585427 0 0 0
-0.340895 1.522124 3.688576 0 0 0
-0.340895 1.522124 3.688576 0 0 0
-0.324415 1.480368 3.737803 0 0 0
-0.324415 1.480368 3.737803 0 0 0
-0.255344 1.367629 3.844463 0 0 0
-0.235353 1.391403 3.823572 0 0 0
-0.614619 -0.368851 6.487613 0 0 0
-0.233108 1.230309 3.976020 0 0 0
-0.228050 1.326907 3.885926 0 0 0
-0.213445 1.355816 3.858365 0 0 0
-0.148609 -0.985225 4.473427 0 0 0
-0.126918 -0.903725 4.485158 0 0 0
-0.041745 1.536027 3.705282 0 0 0
-0.048398 -0.788467 4.581784 0 0 0
0.010851 1.454772 3.854448 0 0 0
0.017722 1.414549 3.825615 0 0 0
0.053375 1.347146 3.890690 0 0 0
0.120265 1.506965 3.744143 0 0 0
0.159177 -0.617223 4.456845 0 0 0
0.144758 1.468590 3.788313 0 0 0
0.735225 -0.808870 5.460512 0 0 0
0.925831 -0.755214 5.590593 0 0 0
0.925831 -0.755214 5.590593 0 0 0
0.963640 -0.723562 5.548885 0 0 0
1.051430 -0.768568 5.529909 0 0 0
1.129929 -0.723939 5.388570 0 0 0
1.552936 -1.857109 7.222268 0 0 0
0.824508 1.498964 3.580976 0 0 0
1.265957 -0.762894 5.475758 0 0 0
-0.605706 -0.413035 -3.021761 0 0 0
0.957457 -0.101986 4.861645 0 0 0
1.221593 -0.094076 4.706647 0 0 0
1.262984 -0.238520 4.782209 0 0 0
1.307806 1.589171 3.738250 0 0 0
1.520832 1.090310 4.290551 0 0 0
1.323832 1.609240 3.718196 0 0 0
1.566549 1.078736 4.296868 0 0 0
1.566549 1.078736 4.296868 0 0 0
2.699280 -1.700441 7.178004 0 0 0
2.186993 -0.056685 5.494857 0 0 0
2.609808 -0.960809 6.443291 0 0 0
2.244408 -0.080106 5.510205 0 0 0
1.810889 0.998697 4.402351 0 0 0
2.421599 -0.249427 5.707163 0 0 0
2.029295 0.755824 4.676788 0 0 0
1.708643 1.467972 3.874399 0 0 0
1.800465 1.307235 4.064956 0 0 0
2.546290 -0.067671 5.532554 0 0 0
2.546290 -0.067671 5.532554 0 0 0
3.221469 -1.144934 6.693009 0 0 0
3.130613 -0.943207 6.475708 0 0 0
2.968916 -0.355531 5.853425 0 0 0
3.641881 -1.087706 6.650580 0 0 0
3.331155 -0.496532 6.016675 0 0 0
3.163220 -0.168347 5.657208 0 0 0
2.951225 0.252775 5.209498 0 0 0
4.115794 -0.927569 6.467713 0 0 0
-3.034048 0.380712 4.662056 0 0 0
-2.563138 0.678154 4.409221 0 0 0
-3.275645 -0.794399 5.725821 0 0 0
-2.737885 0.262805 4.809126 0 0 0
-2.281674 0.986972 4.145198 0 0 0
-3.074855 -0.918856 5.859680 0 0 0
-2.280186 0.768333 4.357335 0 0 0
-2.110416 1.031647 4.107581 0 0 0
-2.604982 -0.376563 5.415838 0 0 0
-2.903639 -1.119391 6.072920 0 0 0
-2.903639 -1.119391 6.072920 0 0 0
-2.023219 0.871495 4.262444 0 0 0
-1.832138 1.127759 4.012118 0 0 0
-2.003454 0.729297 4.400647 0 0 0
-2.003454 0.729297 4.400647 0 0 0
-2.831137 -1.443034 6.357249 0 0 0
-1.749070 0.956031 4.190527 0 0 0
-1.733303 0.911398 4.226486 0 0 0
-1.587679 1.213122 3.941433 0 0 0
-2.487959 -1.504139 6.455320 0 0 0
-1.567880 1.080762 4.069031 0 0 0
-2.408648 -1.715904 6.666799 0 0 0
-1.392204 1.284283 3.879066 0 0 0
-1.438772 1.090744 4.061054 0 0 0
-1.380011 0.977942 4.170308 0 0 0
-1.241452 1.032626 4.125142 0 0 0
-0.903569 0.136656 4.853756 0 0 0
-0.812474 -0.209325 4.812416 0 0 0
-0.801577 -0.285342 4.820913 0 0 0
-0.787261 0.342141 4.801718 0 0 0
-0.365100 -1.389001 4.543744 0 0 0
-0.285391 1.473223 3.743817 0 0 0
-0.275239 0.048868 4.449767 0 0 0
-0.233666 1.453804 3.755587 0 0 0
-0.197116 1.390642 3.831693 0 0 0
-0.195343 -0.984695 4.476162 0 0 0
-0.172050 -1.179059 4.539424 0 0 0
0.139983 -0.666024 4.497307 0 0 0
0.139983 -0.666024 4.497307 0 0 0
0.139901 -0.412921 4.314454 0 0 0
0.176163 0.180137 4.482152 0 0 0
0.193160 -0.658302 4.485573 0 0 0
0.334808 -0.030623 4.578460 0 0 0
0.388118 -0.539842 4.427367 0 0 0
1.079599 -1.673259 7.000144 0 0 0
0.724092 0.009826 4.667193 0 0 0
0.927360 -0.758028 5.590434 0 0 0
0.927360 -0.758028 5.590434 0 0 0
1.257152 -1.612681 6.935227 0 0 0
0.788818 1.554542 3.766156 0 0 0
1.194429 -0.671068 5.368825 0 0 0
1.194429 -0.671068 5.368825 0 0 0
0.902150 1.585338 3.741242 0 0 0
1.294976 0.007968 4.829791 0 0 0
-145.402353 52.478438 -553.199986 0 0 0
2.724081 -1.613292 7.111521 0 0 0
2.816844 -1.788826 7.307493 0 0 0
2.758471 -0.715452 6.208816 0 0 0
1.849339 1.224265 4.156753 0 0 0
1.905490 1.135388 4.254913 0 0 0
1.933724 1.082488 4.304124 0 0 0
2.496280 0.005063 5.463083 0 0 0
2.496280 0.005063 5.463083 0 0 0
2.722810 -0.377765 5.871494 0 0 0
2.722810 -0.377765 5.871494 0 0 0
2.610887 -0.060338 5.535859 0 0 0
2.610887 -0.060338 5.535859 0 0 0
2.675672 -0.183328 5.656942 0 0 0
2.675672 -0.183328 5.656942 0 0 0
2.122245 0.927466 4.474184 0 0 0
2.785840 -0.367576 5.853281 0 0 0
2.638044 0.034714 5.439337 0 0 0
3.166880 -0.880778 6.423772 0 0 0
2.593549 0.204980 5.240562 0 0 0
2.706972 0.024525 5.450511 0 0 0
2.454639 0.572236 4.862425 0 0 0
2.454639 0.572236 4.862425 0 0 0
2.709463 0.137668 5.336826 0 0 0
3.652385 -1.409898 6.980784 0 0 0
3.485695 -1.047396 6.607332 0 0 0
3.485695 -1.047396 6.607332 0 0 0
3.290124 -0.677891 6.188690 0 0 0
3.290124 -0.677891 6.188690 0 0 0
3.727625 -1.383821 6.965386 0 0 0
3.166897 -0.412508 5.923338 0 0 0
3.166897 -0.412508 5.923338 0 0 0
3.477290 -0.850222 6.394705 0 0 0
3.261022 -0.358997 5.855964 0 0 0
3.049396 0.050366 5.409168 0 0 0
-2.969440 0.494873 4.563570 0 0 0
-2.458238 0.885467 4.230936 0 0 0
-2.324584 0.949494 4.183234 0 0 0
-2.324584 0.949494 4.183234 0 0 0
-3.280995 -1.198365 6.073442 0 0 0
-2.999331 -0.860070 5.818178 0 0 0
-2.999331 -0.860070 5.818178 0 0 0
-2.131201 0.957351 4.178298 0 0 0
-2.068972 1.096141 4.051432 0 0 0
-2.901172 -0.816072 5.802941 0 0 0
-2.001028 0.947990 4.194169 0 0 0
-2.001028 0.947990 4.194169 0 0 0
-1.881662 0.781635 4.364240 0 0 0
-2.826038 -1.732195 6.623085 0 0 0
-2.100922 -0.681952 5.754301 0 0 0
-1.212702 1.276161 3.890622 0 0 0
-1.869195 -1.091863 6.138466 0 0 0
-1.778511 -1.586209 6.601130 0 0 0
-1.330088 -0.542034 4.872979 0 0 0
-1.226386 -0.894419 5.506095 0 0 0
-0.903810 0.136846 4.851717 0 0 0
-0.414804 -0.433659 3.505436 0 0 0
-0.574475 1.360478 3.838870 0 0 0
-0.671981 -0.964685 4.901501 0 0 0
-0.424265 1.175821 4.006261 0 0 0
-0.460256 -0.249974 4.620921 0 0 0
-0.329550 1.209222 3.983799 0 0 0
-0.129238 1.270203 3.942712 0 0 0
-0.102674 -1.298314 4.520103 0 0 0
0.036309 -0.864591 4.640363 0 0 0
0.090809 0.307173 4.572052 0 0 0
0.212808 -0.992276 4.775086 0 0 0
0.400431 0.022689 4.556827 0 0 0
0.383711 1.508109 3.773120 0 0 0
0.415317 1.443703 3.848851 0 0 0
0.733427 0.011380 4.692258 0 0 0
0.800999 0.184078 4.777905 0 0 0
0.936870 -0.125161 4.572756 0 0 0
1.922567 -1.804560 7.220310 0 0 0
1.924442 -1.805511 7.224980 0 0 0
1.920533 0.483576 4.931923 0 0 0
3.143917 -2.407921 7.968282 0 0 0
1.914925 0.688073 4.724340 0 0 0
2.242703 0.042812 5.393512 0 0 0
2.242703 0.042812 5.393512 0 0 0
2.371262 -0.168990 5.619986 0 0 0
2.111189 0.779317 4.648055 0 0 0
2.551604 0.039350 5.428028 0 0 0
2.551604 0.039350 5.428028 0 0 0
2.194822 0.737803 4.680418 0 0 0
2.194822 0.737803 4.680418 0 0 0
2.014621 1.134701 4.258465 0 0 0
1.942919 0.389896 4.112569 0 0 0
2.431237 0.357366 5.087845 0 0 0
2.431237 0.357366 5.087845 0 0 0
2.528869 0.211332 5.235950 0 0 0
2.679693 -0.041418 5.525155 0 0 0
2.355770 0.733496 4.693773 0 0 0
2.355770 0.733496 4.693773 0 0 0
2.517683 0.455682 4.970666 0 0 0
2.517683 0.455682 4.970666 0 0 0
3.887888 -1.958705 7.576104 0 0 0
2.414195 0.746497 4.667283 0 0 0
2.414195 0.746497 4.667283 0 0 0
3.182131 -0.617175 6.125306 0 0 0
3.182131 -0.617175 6.125306 0 0 0
2.913114 -0.094791 5.586591 0 0 0
2.913114 -0.094791 5.586591 0 0 0
2.865053 -0.005178 5.501667 0 0 0
2.865053 -0.005178 5.501667 0 0 0
2.508273 0.598425 4.825557 0 0 0
2.508273 0.598425 4.825557 0 0 0
3.033104 -0.171116 5.668164 0 0 0
2.970872 -0.067942 5.550680 0 0 0
2.900175 0.057384 5.420330 0 0 0
2.609618 0.555154 4.878009 0 0 0
3.755971 0.555726 6.789982 0 0 0
3.975308 -1.766147 7.350424 0 0 0
3.008099 0.054428 5.448474 0 0 0
3.008099 0.054428 5.448474 0 0 0
4.944101 -1.748500 7.409707 0 0 0
-4.062398 -1.648929 6.329261 0 0 0
-3.477306 -0.876704 5.752359 0 0 0
-3.215756 -1.313409 6.182903 0 0 0
-3.171061 -1.204754 6.140853 0 0 0
-2.802470 -1.033858 6.008568 0 0 0
-1.970580 -1.276080 6.287866 0 0 0
-0.963332 1.237570 3.935892 0 0 0
-0.698200 1.463000 3.878938 0 0 0
-0.909760 0.001564 4.796632 0 0 0
-0.707919 1.292611 3.885405 0 0 0
-0.840078 -0.733970 4.816283 0 0 0
-0.641407 1.335048 3.844283 0 0 0
-0.641407 1.335048 3.844283 0 0 0
-0.210657 0.388872 1.470241 0 0 0
-0.533950 1.402980 3.788391 0 0 0
-0.502436 1.211270 3.975024 0 0 0
-0.423611 1.527839 3.681878 0 0 0
-0.491311 -0.164916 4.591791 0 0 0
-0.247409 -3.057320 8.220240 0 0 0
-0.129382 -1.213828 4.484342 0 0 0
0.203427 -0.464286 7.897527 0 0 0
-0.793480 -0.609150 4.847574 0 0 0
1.410733 -1.593613 6.932773 0 0 0
0.785349 1.554294 3.761309 0 0 0
1.551333 -1.540908 6.861897 0 0 0
1.288211 -0.328731 4.837806 0 0 0
1.910226 -1.442244 6.813226 0 0 0
1.099814 1.631321 3.865957 0 0 0
2.267602 -1.346599 6.802803 0 0 0
2.505743 -1.247913 6.641668 0 0 0
2.965626 -2.297462 7.830778 0 0 0
1.521867 1.390468 3.962019 0 0 0
1.812896 0.839121 4.563398 0 0 0
1.650859 1.289182 4.081992 0 0 0
1.976889 0.585681 4.832086 0 0 0
2.403535 0.276880 5.177713 0 0 0
2.403535 0.276880 5.177713 0 0 0
2.207384 0.835869 4.581195 0 0 0
2.295885 0.703268 4.721379 0 0 0
2.295885 0.703268 4.721379 0 0 0
2.359681 0.839600 4.579485 0 0 0
-2.764315 -2.864987 -5.581556 0 0 0
-2.571657 0.442686 4.658562 0 0 0
-1.324251 1.035822 4.120228 0 0 0
-2.359242 -2.682143 7.524954 0 0 0
-1.300430 -0.309158 4.760746 0 0 0
-1.282982 0.054414 5.086335 0 0 0
-1.416421 -2.360052 7.399501 0 0 0
-0.365235 -0.435285 4.625493 0 0 0
-0.039492 -0.873133 4.637629 0 0 0
0.511830 -0.048266 4.668822 0 0 0
1.206977 -0.829745 5.445073 0 0 0
1.250526 -0.134708 4.773700 0 0 0
2.348538 -2.083236 7.537622 0 0 0
1.744447 0.960960 4.451900 0 0 0
1.929865 0.811945 4.591120 0 0 0
2.495814 -0.495919 5.934241 0 0 0
1.993816 0.701114 4.700448 0 0 0
2.084942 0.594524 4.827051 0 0 0
2.012638 0.902916 4.522955 0 0 0
2.012638 0.902916 4.522955 0 0 0
2.138302 0.668315 4.762176 0 0 0
2.138302 0.668315 4.762176 0 0 0
-3.565202 -2.144807 6.886547 0 0 0
-2.479376 -1.531537 6.474839 0 0 0
-2.214442 -0.834117 5.834613 0 0 0
-2.350108 -2.234793 7.133485 0 0 0
-2.215058 -2.486467 7.439795 0 0 0
-1.443984 -0.316120 4.828097 0 0 0
-1.745910 -3.036866 7.960646 0 0 0
-0.348128 -0.197114 4.630926 0 0 0
-0.293847 -0.329230 4.694843 0 0 0
-0.654285 -1.300091 10.762549 0 0 0
-0.127234 0.424534 4.720538 0 0 0
0.001122 -0.022630 4.667497 0 0 0
0.693158 0.382472 4.736922 0 0 0
0.850095 -0.254014 4.768158 0 0 0
2.771030 -1.972974 7.503927 0 0 0
1.620537 1.138819 4.237702 0 0 0
1.771477 1.224915 4.117947 0 0 0
-0.918432 -0.940455 -1.880441 0 0 0
-3.220448 -0.574951 5.549007 0 0 0
-2.611779 -1.885481 6.848564 0 0 0
-0.734082 -0.307875 4.865803 0 0 0
-0.532625 -0.901938 4.905766 0 0 0
-0.037618 0.287307 4.666155 0 0 0
0.654761 -0.134502 4.861894 0 0 0
0.748105 0.252686 4.734613 0 0 0
2.488391 -1.069981 6.711371 0 0 0
3.495340 2.108345 5.929805 0 0 0
-2.557853 0.450529 4.809695 0 0 0
-1.106948 0.238870 4.884400 0 0 0
0.159835 0.138875 4.787329 0 0 0
0.516719 0.095480 4.602714 0 0 0
-0.321081 -0.257056 1.100561 0 0 0
-0.526232 -0.640732 4.844411 0 0 0
-0.526232 -0.640732 4.844411 0 0 0
-0.522205 0.413794 4.895837 0 0 0
0.958352 -0.224569 4.821135 0 0 0
-2.390821 0.412398 4.736511 0 0 0
-0.355114 -0.024208 4.482663 0 0 0
-0.002370 -0.508017 4.555932 0 0 0
0.891030 0.009107 5.212877 0 0 0
2.114453 -0.831688 6.430825 0 0 0
-1.899097 0.340168 5.138464 0 0 0
0.787256 0.993337 4.367041 0 0 0
