ply
format ascii 1.0
element vertex 1260
property float x
property float y
property float z
property uchar diffuse_red
property uchar diffuse_green
property uchar diffuse_blue
end_header
-2.939321 0.629095 4.388769 0 0 0
-3.067219 0.369064 4.619544 0 0 0
-2.864993 0.720592 4.324888 0 0 0
-3.073174 0.314013 4.673317 0 0 0
-3.073174 0.314013 4.673317 0 0 0
-2.939232 0.514996 4.495149 0 0 0
-2.920941 0.543778 4.475857 0 0 0
-3.302449 -0.167235 5.066228 0 0 0
-2.794810 0.751380 4.290122 0 0 0
-0.483827 -0.100521 0.778956 0 0 0
-3.122391 0.149219 4.821335 0 0 0
-2.898547 0.510662 4.507090 0 0 0
-2.766181 0.678315 4.360615 0 0 0
-2.899100 0.404606 4.605788 0 0 0
-2.899100 0.404606 4.605788 0 0 0
-2.863938 0.467501 4.551386 0 0 0
-2.740850 0.673534 4.370160 0 0 0
-3.086083 0.032397 4.933356 0 0 0
-3.019412 0.146905 4.830081 0 0 0
-3.092126 0.009592 4.948762 0 0 0
-2.960534 0.247544 4.738899 0 0 0
-3.053059 0.024762 4.941361 0 0 0
-2.489440 1.058093 4.025511 0 0 0
-2.786617 0.498274 4.525257 0 0 0
-3.177379 -0.248568 5.167371 0 0 0
-3.034841 0.010825 4.946925 0 0 0
-2.639247 0.707586 4.345695 0 0 0
-2.639247 0.707586 4.345695 0 0 0
-2.630923 0.694453 4.355410 0 0 0
-2.812419 0.341624 4.673869 0 0 0
-2.770991 0.405705 4.622008 0 0 0
-2.446893 0.977062 4.107370 0 0 0
-3.066267 -0.216302 5.161192 0 0 0
-3.066267 -0.216302 5.161192 0 0 0
-3.000944 -0.102296 5.058618 0 0 0
-2.581427 0.698827 4.356716 0 0 0
-2.581427 0.698827 4.356716 0 0 0
-2.566240 0.704606 4.353754 0 0 0
-3.056354 -0.313765 5.238691 0 0 0
-3.056354 -0.313765 5.238691 0 0 0
-2.443575 0.875647 4.191120 0 0 0
-3.040622 -0.301557 5.238128 0 0 0
-2.365662 1.008567 4.074613 0 0 0
-2.898177 -0.047094 5.014399 0 0 0
-2.759854 0.227612 4.786009 0 0 0
-2.424237 0.842312 4.227739 0 0 0
-2.995030 -0.317622 5.253280 0 0 0
-2.541682 0.579590 4.468180 0 0 0
-2.541682 0.579590 4.468180 0 0 0
-2.919014 -0.278412 5.214309 0 0 0
-2.855990 -0.212753 5.170530 0 0 0
-2.882033 -0.339753 5.281367 0 0 0
-2.921239 -0.432966 5.358126 0 0 0
-2.331657 0.801909 4.272109 0 0 0
-2.389998 0.676776 4.384709 0 0 0
-2.314174 0.773211 4.302156 0 0 0
-2.297711 0.742830 4.328688 0 0 0
-2.323524 0.683578 4.380821 0 0 0
-2.807893 -0.372533 5.318611 0 0 0
-2.299360 0.712416 4.350459 0 0 0
-2.145534 1.002171 4.084071 0 0 0
-2.278448 0.720216 4.351676 0 0 0
-2.114682 1.026578 4.064143 0 0 0
-2.103480 1.008401 4.079642 0 0 0
-2.063528 0.999172 4.089976 0 0 0
-2.034592 0.983738 4.100147 0 0 0
-2.153655 0.697407 4.372244 0 0 0
-1.987281 0.910210 4.175321 0 0 0
-2.403980 -0.191972 5.184199 0 0 0
-1.952430 0.811404 4.264893 0 0 0
-1.837566 1.072899 4.019011 0 0 0
-1.941180 0.792179 4.283049 0 0 0
-1.820800 0.763890 4.307755 0 0 0
-1.531408 1.028148 4.062854 0 0 0
-1.406748 1.245957 3.857542 0 0 0
-1.429190 0.987707 4.099057 0 0 0
-1.317398 1.136838 3.958980 0 0 0
-1.207038 1.240559 3.860507 0 0 0
-1.307609 0.288126 5.428406 0 0 0
0.929886 -0.716598 -3.050446 0 0 0
-1.253332 0.995946 4.090209 0 0 0
-1.238988 0.974630 4.112821 0 0 0
-1.147525 1.041958 4.046062 0 0 0
-1.147525 1.041958 4.046062 0 0 0
-1.140999 1.029253 4.062286 0 0 0
-1.140999 1.029253 4.062286 0 0 0
-4.480864 3.979799 16.285536 0 0 0
-1.234120 -0.166733 4.678022 0 0 0
-0.993848 1.115894 3.981667 0 0 0
-0.993848 1.115894 3.981667 0 0 0
-0.969216 1.195929 3.908023 0 0 0
-0.982030 1.124301 3.971944 0 0 0
-0.982030 1.124301 3.971944 0 0 0
-0.952867 1.160638 3.937926 0 0 0
-1.114551 -0.586096 4.753397 0 0 0
-0.936172 1.113337 3.981490 0 0 0
-1.069524 -0.199515 4.659855 0 0 0
-1.053913 0.013961 4.695086 0 0 0
-1.037118 -0.267541 4.652737 0 0 0
-1.037118 -0.267541 4.652737 0 0 0
-0.876844 1.143075 3.958159 0 0 0
-1.054930 0.022702 4.868990 0 0 0
-0.814584 1.334291 3.763137 0 0 0
-0.856875 1.121492 3.974779 0 0 0
-0.829834 1.170131 3.934097 0 0 0
-0.985229 -0.193020 4.682781 0 0 0
-0.801781 1.202020 3.894243 0 0 0
-0.788829 1.181000 3.912668 0 0 0
-0.937260 -0.607700 4.780236 0 0 0
-0.905307 -0.369002 4.713580 0 0 0
-0.762343 1.139393 3.954356 0 0 0
-0.927559 -0.674727 4.882100 0 0 0
-0.910439 -0.612808 4.801440 0 0 0
-0.724936 1.051687 4.044852 0 0 0
-0.776255 0.255022 4.551310 0 0 0
-0.603148 1.254875 3.849480 0 0 0
-0.661281 -0.077592 3.636895 0 0 0
-0.555146 1.170742 3.929122 0 0 0
-0.590621 0.227524 4.380965 0 0 0
-1.163923 2.480923 8.465947 0 0 0
-0.593606 -0.945310 4.823042 0 0 0
-0.507386 -0.123003 4.466981 0 0 0
-0.523197 -0.794104 4.612307 0 0 0
-0.449786 1.132433 3.964365 0 0 0
-0.442285 1.165864 3.939883 0 0 0
-0.468097 -0.292538 4.632974 0 0 0
-0.373128 1.285515 3.830127 0 0 0
-0.450263 -0.782035 4.649064 0 0 0
-0.442215 -0.324940 4.644048 0 0 0
-0.356686 1.284366 3.831333 0 0 0
-0.432568 -0.326116 4.722441 0 0 0
-0.146099 -0.264468 2.415034 0 0 0
-0.371663 -0.261684 4.610336 0 0 0
-0.372050 -0.253964 4.639876 0 0 0
-0.356115 -0.261521 4.723070 0 0 0
-0.310912 -1.060642 4.433704 0 0 0
-0.304664 -1.016458 4.427095 0 0 0
-0.225353 -1.151151 4.466284 0 0 0
-0.225353 -1.151151 4.466284 0 0 0
-0.191348 1.274930 3.852612 0 0 0
-0.156230 -0.853766 4.435460 0 0 0
-0.099197 -0.485722 4.345324 0 0 0
-0.083492 -0.904383 4.423689 0 0 0
-0.083492 -0.904383 4.423689 0 0 0
-0.071447 -1.152019 4.424139 0 0 0
-0.070176 -0.925185 4.422321 0 0 0
-0.042955 -0.288606 4.291754 0 0 0
-0.031591 -0.977533 4.426054 0 0 0
-0.023896 -1.071833 4.419388 0 0 0
-0.012889 -1.154356 4.435096 0 0 0
0.006048 -1.163691 4.455455 0 0 0
0.011322 -0.337913 4.250490 0 0 0
0.023649 1.305828 3.838916 0 0 0
0.066188 0.254072 4.492750 0 0 0
0.065143 -0.380702 4.254164 0 0 0
0.086798 0.182408 4.442259 0 0 0
0.264235 -2.251231 14.621142 0 0 0
0.166208 0.063299 4.443358 0 0 0
0.162088 1.334204 3.824509 0 0 0
0.162088 1.334204 3.824509 0 0 0
0.252090 -0.677022 4.458008 0 0 0
0.259594 -0.038593 4.524623 0 0 0
0.275922 -0.422772 4.271945 0 0 0
0.340426 0.084166 4.399855 0 0 0
0.349747 0.010977 4.492901 0 0 0
0.334324 -0.349014 4.279500 0 0 0
0.521049 -0.400401 4.209787 0 0 0
0.401524 1.438545 3.741262 0 0 0
0.589174 -0.801026 5.336255 0 0 0
-0.075748 -0.336082 -2.184636 0 0 0
0.650986 -1.029501 5.509331 0 0 0
0.675008 -0.239134 4.666163 0 0 0
-0.506894 -1.798424 -4.124250 0 0 0
0.826558 -0.096487 4.516276 0 0 0
0.904380 0.272868 4.920864 0 0 0
0.901019 -0.146371 4.491177 0 0 0
0.929993 0.048127 4.507766 0 0 0
1.126856 -0.683218 5.262755 0 0 0
1.143549 -0.704745 5.278530 0 0 0
1.218820 -0.711393 5.308456 0 0 0
1.218820 -0.711393 5.308456 0 0 0
1.039602 -0.022581 4.516950 0 0 0
1.207212 -0.646204 5.233700 0 0 0
1.207212 -0.646204 5.233700 0 0 0
1.090056 -0.065556 4.529829 0 0 0
1.286525 1.339301 3.897347 0 0 0
1.337845 1.248916 3.983778 0 0 0
1.961619 0.600599 5.426383 0 0 0
1.389806 1.210408 4.029170 0 0 0
1.428707 1.124049 4.121039 0 0 0
1.566167 0.823693 4.441648 0 0 0
1.408225 1.255727 3.983213 0 0 0
1.422065 1.231266 4.010876 0 0 0
1.662039 0.682718 4.585693 0 0 0
1.662039 0.682718 4.585693 0 0 0
1.767668 0.405136 4.867430 0 0 0
1.675322 0.660835 4.607367 0 0 0
1.675322 0.660835 4.607367 0 0 0
3.042041 0.083902 7.598634 0 0 0
1.454926 1.261013 3.979150 0 0 0
1.741166 0.521657 4.754101 0 0 0
1.741166 0.521657 4.754101 0 0 0
-0.433851 -0.431107 -1.382954 0 0 0
1.574102 0.969473 4.285802 0 0 0
1.857735 0.322338 4.961085 0 0 0
1.793496 0.515460 4.770155 0 0 0
1.728042 0.671968 4.599163 0 0 0
1.728042 0.671968 4.599163 0 0 0
-0.633472 -0.380804 -1.375110 0 0 0
1.846955 0.386195 4.899646 0 0 0
1.896834 0.261705 5.021945 0 0 0
1.561741 1.117529 4.131079 0 0 0
1.968856 0.097884 5.194529 0 0 0
1.572070 1.102400 4.144244 0 0 0
1.572070 1.102400 4.144244 0 0 0
1.543454 1.185722 4.062657 0 0 0
1.874299 0.357495 4.926007 0 0 0
1.781806 0.659495 4.614116 0 0 0
-0.381834 -0.485709 -1.131742 0 0 0
1.950569 0.288218 4.998337 0 0 0
1.516571 1.349188 3.872742 0 0 0
1.599546 1.176293 4.075107 0 0 0
1.608407 1.156784 4.088765 0 0 0
1.566731 1.264715 3.961840 0 0 0
1.659447 1.089245 4.167214 0 0 0
2.071645 0.128377 5.170104 0 0 0
2.033091 0.222928 5.070911 0 0 0
1.771173 0.862650 4.403913 0 0 0
1.910034 0.557429 4.727301 0 0 0
1.713285 1.058559 4.192449 0 0 0
1.844297 0.770996 4.501460 0 0 0
1.584025 1.360931 3.855691 0 0 0
1.598563 1.346807 3.880991 0 0 0
1.740320 1.045145 4.213444 0 0 0
1.754072 1.018325 4.237595 0 0 0
2.113786 0.234794 5.064363 0 0 0
2.146589 0.172752 5.124820 0 0 0
1.796028 0.978959 4.283430 0 0 0
1.903193 0.889807 4.373031 0 0 0
2.003106 0.768476 4.513684 0 0 0
2.091764 0.582514 4.707117 0 0 0
1.854920 1.160921 4.084256 0 0 0
1.771024 1.317391 3.896183 0 0 0
2.216116 0.616051 4.673797 0 0 0
2.136135 0.785231 4.495953 0 0 0
2.292405 0.484485 4.811272 0 0 0
-1.441495 -0.676699 -3.211908 0 0 0
2.395700 0.314132 4.985665 0 0 0
1.928457 1.220191 4.004611 0 0 0
2.155422 0.879509 4.392377 0 0 0
2.339781 0.616579 4.680433 0 0 0
2.166756 0.932411 4.328154 0 0 0
2.166756 0.932411 4.328154 0 0 0
2.160121 0.946838 4.315380 0 0 0
2.333034 0.714719 4.569547 0 0 0
2.308424 0.845467 4.420588 0 0 0
2.389584 0.713723 4.564531 0 0 0
2.453854 0.632012 4.653208 0 0 0
2.403857 0.796152 4.476885 0 0 0
2.383507 0.827702 4.436806 0 0 0
2.481883 0.674789 4.597810 0 0 0
2.540927 0.620320 4.657426 0 0 0
2.637381 0.509374 4.785193 0 0 0
-1.199786 -0.455174 -2.248940 0 0 0
2.855229 0.356857 4.950799 0 0 0
-1.435626 -0.695906 -2.232862 0 0 0
-3.309783 -0.012240 4.938043 0 0 0
-3.035521 0.392292 4.600660 0 0 0
-3.165356 0.130858 4.824520 0 0 0
-2.968976 0.461965 4.539649 0 0 0
-3.206658 0.009118 4.932332 0 0 0
-2.889052 0.529509 4.494010 0 0 0
-3.477495 -0.603816 5.428994 0 0 0
-3.233696 -0.172262 5.099799 0 0 0
-3.438383 -0.699938 5.536702 0 0 0
-2.677033 0.723179 4.322005 0 0 0
-3.063529 0.005095 4.955269 0 0 0
-3.063529 0.005095 4.955269 0 0 0
-2.720262 0.641357 4.401632 0 0 0
-2.646715 0.755402 4.300988 0 0 0
-4.442119 0.468620 7.738620 0 0 0
-2.622561 0.762904 4.293395 0 0 0
-2.622561 0.762904 4.293395 0 0 0
-2.772378 0.473672 4.553184 0 0 0
-2.655760 0.689034 4.360881 0 0 0
-2.861427 0.286487 4.718144 0 0 0
-2.435379 1.057114 4.019288 0 0 0
-3.144235 -0.299754 5.217184 0 0 0
-3.009777 -0.076050 5.034764 0 0 0
-3.009777 -0.076050 5.034764 0 0 0
-2.923442 0.044539 4.937526 0 0 0
-2.923442 0.044539 4.937526 0 0 0
-2.927547 -0.005362 4.977434 0 0 0
-2.645263 0.531075 4.509880 0 0 0
-2.645263 0.531075 4.509880 0 0 0
-2.577839 0.642243 4.406726 0 0 0
-7.836101 1.753548 13.201951 0 0 0
-7.836101 1.753548 13.201951 0 0 0
-3.018790 -0.284768 5.222955 0 0 0
-2.540843 0.627410 4.427752 0 0 0
-3.162087 -0.253346 5.540036 0 0 0
-2.941247 -0.200662 5.153947 0 0 0
-2.975492 -0.348177 5.281426 0 0 0
-2.822371 -0.026771 5.002612 0 0 0
-2.912967 -0.256409 5.207715 0 0 0
-2.455058 0.677111 4.379800 0 0 0
-2.951803 -0.395869 5.336099 0 0 0
-2.850698 -0.191283 5.165804 0 0 0
-2.850698 -0.191283 5.165804 0 0 0
-2.774414 -0.113437 5.096625 0 0 0
-2.401301 0.602634 4.452381 0 0 0
-2.401301 0.602634 4.452381 0 0 0
-2.239327 0.865993 4.217295 0 0 0
-2.799943 -0.470416 5.402314 0 0 0
-2.728616 -0.486423 5.426777 0 0 0
-2.123912 0.723681 4.348765 0 0 0
-2.054702 0.742497 4.331250 0 0 0
-2.054702 0.742497 4.331250 0 0 0
-2.449095 -0.275986 5.254682 0 0 0
-2.449095 -0.275986 5.254682 0 0 0
-1.974071 0.842608 4.235190 0 0 0
-1.896511 0.934673 4.155001 0 0 0
-1.954236 0.777821 4.288063 0 0 0
-1.875477 0.837333 4.240663 0 0 0
-1.685445 0.868285 4.210818 0 0 0
-1.584799 1.136008 3.959974 0 0 0
-1.111037 0.553398 3.045973 0 0 0
-1.458337 1.111052 3.981762 0 0 0
-1.396923 1.228178 3.869783 0 0 0
-1.402178 1.081106 4.009846 0 0 0
-1.368022 1.145157 3.951332 0 0 0
-1.354060 1.154718 3.938249 0 0 0
-1.385945 0.863075 4.220326 0 0 0
-1.268672 1.210732 3.886628 0 0 0
-1.268672 1.210732 3.886628 0 0 0
-1.258884 1.228254 3.872693 0 0 0
-1.775695 1.167594 5.520999 0 0 0
-1.329775 0.924577 4.158791 0 0 0
-0.268042 0.029788 1.026392 0 0 0
-1.151823 1.357210 3.755802 0 0 0
-1.881412 1.361138 6.169285 0 0 0
-1.157207 1.238631 3.865563 0 0 0
-1.157207 1.238631 3.865563 0 0 0
-1.200794 1.046052 4.045060 0 0 0
-1.191024 1.067519 4.023426 0 0 0
-0.291578 0.152126 1.186622 0 0 0
-1.174619 1.075610 4.014967 0 0 0
-1.174619 1.075610 4.014967 0 0 0
-1.169812 1.041575 4.045040 0 0 0
-1.189297 0.921320 4.157032 0 0 0
-1.090539 1.311917 3.794488 0 0 0
-1.090539 1.311917 3.794488 0 0 0
-1.126087 1.140166 3.955002 0 0 0
-1.164418 0.992154 4.094737 0 0 0
-1.164418 0.992154 4.094737 0 0 0
-1.121864 1.093257 4.000603 0 0 0
-1.152450 0.967297 4.121272 0 0 0
-1.152450 0.967297 4.121272 0 0 0
-1.136444 0.980222 4.108521 0 0 0
-1.136444 0.980222 4.108521 0 0 0
-1.103128 1.093478 4.001667 0 0 0
-1.090611 1.105637 3.984118 0 0 0
-1.090693 1.034973 4.054265 0 0 0
-1.022770 1.274661 3.832007 0 0 0
-1.030067 1.178924 3.922703 0 0 0
-1.030067 1.178924 3.922703 0 0 0
-1.016491 1.153638 3.943823 0 0 0
-1.029732 1.015653 4.075237 0 0 0
-0.992705 1.148761 3.950451 0 0 0
-0.992705 1.148761 3.950451 0 0 0
-1.183338 0.014350 4.824134 0 0 0
-0.908068 1.289067 3.819756 0 0 0
-0.893026 1.269000 3.838137 0 0 0
0.389323 -0.684765 -5.015875 0 0 0
-1.083169 -0.856266 5.311961 0 0 0
-0.761958 1.223862 3.872604 0 0 0
-0.673741 -0.889950 3.858202 0 0 0
-0.724802 1.303107 3.797880 0 0 0
-0.723258 1.127772 3.966850 0 0 0
-0.592657 1.237246 3.862368 0 0 0
-0.543156 1.222946 3.882885 0 0 0
-0.479392 1.368688 3.745156 0 0 0
-0.479392 1.368688 3.745156 0 0 0
-0.446612 1.287727 3.827126 0 0 0
-0.428024 1.288145 3.824842 0 0 0
-0.493504 -0.422833 4.507236 0 0 0
-0.470585 -0.187996 4.509403 0 0 0
-0.302511 0.860297 3.002620 0 0 0
-0.461503 -0.634965 4.494404 0 0 0
-0.402956 1.164214 3.941627 0 0 0
-0.337422 1.253789 3.860448 0 0 0
-0.364001 0.078912 4.348515 0 0 0
-0.342048 -0.286149 4.697601 0 0 0
-0.322613 -0.490796 4.546891 0 0 0
-0.316503 -0.134350 4.470064 0 0 0
-0.102831 -0.258812 2.713310 0 0 0
-0.290657 -0.262319 4.629562 0 0 0
-0.251784 -1.256164 4.531862 0 0 0
-0.192110 -1.249879 4.509081 0 0 0
-0.174898 -1.281948 4.552256 0 0 0
-0.121540 -0.946545 4.415076 0 0 0
-0.071500 -0.022946 4.515383 0 0 0
-0.058349 -0.378663 4.289603 0 0 0
-0.044666 -1.039303 4.428799 0 0 0
0.017347 1.319667 3.822597 0 0 0
0.120071 -1.127487 4.563976 0 0 0
0.115199 1.499420 3.654559 0 0 0
0.193175 1.368155 3.786285 0 0 0
0.893043 6.824967 18.382336 0 0 0
0.354695 -0.842857 4.946609 0 0 0
0.273025 1.384056 3.784549 0 0 0
0.356930 -0.006318 4.473685 0 0 0
0.356930 -0.006318 4.473685 0 0 0
0.399452 0.147685 4.394723 0 0 0
0.550812 -0.854386 5.342280 0 0 0
0.401826 1.398009 3.776244 0 0 0
0.634623 -1.060134 5.549151 0 0 0
0.640763 -0.967987 5.460394 0 0 0
0.508540 1.501228 3.687680 0 0 0
14.963468 1.708299 122.752019 0 0 0
1.069225 -0.719788 5.297187 0 0 0
1.069225 -0.719788 5.297187 0 0 0
1.100161 -0.743488 5.323492 0 0 0
1.209310 -0.672835 5.247605 0 0 0
1.207381 -0.624331 5.221609 0 0 0
1.083977 -0.099243 4.527850 0 0 0
1.344932 1.215100 4.023966 0 0 0
1.258496 1.476518 3.741864 0 0 0
1.285192 1.432931 3.787563 0 0 0
1.340724 1.283689 3.946937 0 0 0
1.464222 1.176065 4.070793 0 0 0
1.446715 1.304211 3.928451 0 0 0
1.657100 0.786506 4.481105 0 0 0
1.368088 1.507728 3.691483 0 0 0
-0.439220 -0.419297 -1.367425 0 0 0
1.713248 0.691052 4.576533 0 0 0
1.713248 0.691052 4.576533 0 0 0
1.440222 1.409162 3.828161 0 0 0
1.746008 0.642803 4.629564 0 0 0
1.514422 1.224954 4.010322 0 0 0
1.901940 0.322672 4.963886 0 0 0
1.932938 0.277586 5.000142 0 0 0
1.623151 1.060610 4.195593 0 0 0
1.810259 0.610419 4.662607 0 0 0
1.459605 1.448472 3.762682 0 0 0
1.477380 1.418000 3.797374 0 0 0
1.518197 1.383693 3.875255 0 0 0
1.822586 0.625823 4.650750 0 0 0
1.583915 1.220912 4.022337 0 0 0
2.043494 0.140124 5.159051 0 0 0
1.898476 0.490056 4.791935 0 0 0
1.937701 0.438340 4.848941 0 0 0
1.919164 0.480057 4.787295 0 0 0
1.919164 0.480057 4.787295 0 0 0
1.791269 0.835087 4.435325 0 0 0
1.741537 0.941714 4.315218 0 0 0
1.970127 0.418110 4.867431 0 0 0
2.012634 0.335526 4.950440 0 0 0
2.001042 0.381072 4.910947 0 0 0
1.716225 1.087852 4.168776 0 0 0
2.055836 0.309121 4.987799 0 0 0
2.134919 0.196036 5.112234 0 0 0
2.134919 0.196036 5.112234 0 0 0
2.041535 0.393331 4.888127 0 0 0
1.811162 0.942948 4.317578 0 0 0
2.130083 0.242043 5.061309 0 0 0
2.113621 0.277817 5.018550 0 0 0
2.163950 0.186303 5.119986 0 0 0
2.182461 0.149325 5.156129 0 0 0
2.111094 0.323300 4.973529 0 0 0
2.285803 -0.049399 5.364618 0 0 0
2.111576 0.516193 4.773215 0 0 0
2.091473 0.612349 4.676519 0 0 0
1.881219 1.049247 4.204280 0 0 0
2.136380 0.561057 4.722930 0 0 0
1.752025 1.349276 3.859975 0 0 0
1.752025 1.349276 3.859975 0 0 0
1.779697 1.302824 3.916516 0 0 0
1.779697 1.302824 3.916516 0 0 0
1.902485 1.108242 4.150433 0 0 0
1.782454 1.324583 3.888866 0 0 0
1.801140 1.298765 3.922898 0 0 0
1.814281 1.281465 3.944179 0 0 0
1.835438 1.240917 3.985379 0 0 0
1.923765 1.088796 4.158749 0 0 0
1.878311 1.235380 3.994497 0 0 0
1.897142 1.200796 4.028532 0 0 0
1.913873 1.172892 4.059281 0 0 0
2.101252 0.844772 4.425790 0 0 0
2.437686 0.246684 5.077025 0 0 0
2.489506 0.221209 5.099187 0 0 0
2.004408 1.127762 4.110031 0 0 0
2.262088 0.726010 4.567463 0 0 0
2.184232 0.883022 4.386380 0 0 0
2.225203 0.824166 4.446376 0 0 0
2.383128 0.542998 4.753869 0 0 0
2.293789 0.794553 4.476708 0 0 0
2.309533 0.772513 4.497666 0 0 0
2.365478 0.750235 4.522780 0 0 0
2.542539 0.469581 4.840367 0 0 0
2.552437 0.445500 4.855276 0 0 0
2.501362 0.554027 4.741406 0 0 0
2.530824 0.561695 4.729639 0 0 0
2.603270 0.496238 4.807554 0 0 0
2.457231 0.727875 4.541439 0 0 0
2.589350 0.545664 4.738870 0 0 0
2.522806 0.694652 4.585828 0 0 0
2.751525 0.510175 4.782638 0 0 0
2.751525 0.510175 4.782638 0 0 0
2.825391 0.397606 4.896685 0 0 0
2.929358 0.237768 5.071492 0 0 0
2.971887 0.206055 5.107826 0 0 0
-0.969741 -0.471918 -1.713465 0 0 0
-0.506177 -0.407685 -0.808873 0 0 0
-2.991241 0.442807 4.560775 0 0 0
-3.115290 0.094091 4.873978 0 0 0
-2.781011 0.688398 4.349729 0 0 0
-2.781011 0.688398 4.349729 0 0 0
-3.499390 -0.857490 5.663671 0 0 0
-2.727648 0.598459 4.451862 0 0 0
-2.497496 0.964587 4.109773 0 0 0
-3.027726 -0.044622 5.000138 0 0 0
-2.558941 0.791584 4.270776 0 0 0
-2.558941 0.791584 4.270776 0 0 0
-2.421099 1.039386 4.041999 0 0 0
-2.504716 0.872693 4.191796 0 0 0
-2.672693 0.527613 4.508381 0 0 0
-3.238049 -0.614424 5.495302 0 0 0
-2.617057 0.545751 4.496801 0 0 0
-2.489923 0.743011 4.313632 0 0 0
-4.310002 0.199235 6.860958 0 0 0
-2.357409 0.730553 4.327538 0 0 0
-2.372914 0.601847 4.462522 0 0 0
-2.119378 0.995284 4.094924 0 0 0
-2.592450 -0.110030 5.098377 0 0 0
-2.691602 -0.646667 5.561516 0 0 0
-2.107445 0.704563 4.363287 0 0 0
-1.972078 0.886411 4.195282 0 0 0
-2.599490 -0.789401 5.703467 0 0 0
-1.849529 1.026821 4.063815 0 0 0
-1.974348 0.718618 4.353100 0 0 0
-1.929661 0.818014 4.257138 0 0 0
-1.850472 0.839330 4.242345 0 0 0
-1.604438 1.168930 3.927731 0 0 0
-1.472361 1.095432 3.998654 0 0 0
-1.437133 1.182688 3.914547 0 0 0
-1.328880 1.261867 3.836932 0 0 0
-1.420091 0.920246 4.167151 0 0 0
-1.399131 0.940525 4.142403 0 0 0
-1.330650 1.067385 4.027252 0 0 0
-1.282742 1.230234 3.872364 0 0 0
-1.282742 1.230234 3.872364 0 0 0
-2.685261 1.769102 8.112975 0 0 0
-1.372756 0.889804 4.193842 0 0 0
-1.321725 1.049705 4.043564 0 0 0
-1.301717 1.065049 4.025818 0 0 0
-1.258922 1.198917 3.898962 0 0 0
-1.258922 1.198917 3.898962 0 0 0
-1.780108 1.175391 5.531302 0 0 0
-1.210004 1.192750 3.907065 0 0 0
-1.213727 1.150165 3.947898 0 0 0
-1.213727 1.150165 3.947898 0 0 0
-1.190271 1.209061 3.887145 0 0 0
-1.212400 1.108392 3.986080 0 0 0
-1.883726 1.365290 6.178545 0 0 0
-1.165533 1.163564 3.933701 0 0 0
-1.148334 1.184705 3.909190 0 0 0
-1.147411 1.135831 3.962104 0 0 0
-1.147411 1.135831 3.962104 0 0 0
-1.139593 1.154459 3.942295 0 0 0
-1.116903 1.166073 3.932709 0 0 0
-1.094859 1.224030 3.876098 0 0 0
-1.076873 1.292005 3.813454 0 0 0
-1.083211 1.259693 3.845943 0 0 0
-1.104611 1.151705 3.945926 0 0 0
-1.096316 1.176516 3.920948 0 0 0
-1.057228 1.259317 3.845469 0 0 0
-1.057228 1.259317 3.845469 0 0 0
-1.060733 1.112483 3.989660 0 0 0
-1.078574 1.012262 4.077333 0 0 0
-5.363777 5.079218 20.187708 0 0 0
-0.957666 1.365697 3.747745 0 0 0
-0.992020 1.196335 3.905814 0 0 0
-0.992020 1.196335 3.905814 0 0 0
-2.393026 2.298413 9.344728 0 0 0
-0.982398 0.991983 4.099352 0 0 0
-1.125142 -0.656847 4.840147 0 0 0
-0.920146 1.062238 4.036162 0 0 0
-1.088257 -0.681169 4.859127 0 0 0
-0.878996 1.187513 3.916844 0 0 0
-0.388594 0.430352 1.886377 0 0 0
-0.892798 1.020738 4.083338 0 0 0
-0.812313 1.127539 3.975417 0 0 0
-0.752808 1.304032 3.794880 0 0 0
-0.641116 1.323907 3.780086 0 0 0
-0.611095 1.457641 3.652646 0 0 0
-0.516200 1.311584 3.799565 0 0 0
-0.518922 -0.485380 4.484086 0 0 0
-0.484013 -0.626704 4.490092 0 0 0
-0.484013 -0.626704 4.490092 0 0 0
-0.488524 -0.212176 4.545286 0 0 0
-0.455295 -0.465999 4.495861 0 0 0
-0.423422 -0.281714 4.628025 0 0 0
-0.357510 -0.140990 4.463835 0 0 0
-0.357510 -0.140990 4.463835 0 0 0
-0.262158 0.091570 4.374149 0 0 0
-0.251835 -0.001376 4.426076 0 0 0
-0.234406 -0.178312 4.553954 0 0 0
-0.166155 -0.821574 4.463147 0 0 0
-0.140786 -1.253675 4.535965 0 0 0
-0.014826 1.510266 3.633708 0 0 0
-0.013255 1.378822 3.761589 0 0 0
-0.013255 1.378822 3.761589 0 0 0
-0.000832 -1.011668 4.416954 0 0 0
0.011519 1.459030 3.684423 0 0 0
0.011519 1.459030 3.684423 0 0 0
0.031362 1.420846 3.727493 0 0 0
0.031362 1.420846 3.727493 0 0 0
0.046790 -1.023548 4.457227 0 0 0
0.044851 1.396953 3.750906 0 0 0
0.044851 1.396953 3.750906 0 0 0
0.048458 1.430544 3.723211 0 0 0
0.059706 1.371301 3.773254 0 0 0
0.059928 1.410812 3.740436 0 0 0
0.073943 1.312269 3.840722 0 0 0
0.076708 1.381654 3.767813 0 0 0
0.117469 1.327289 3.827624 0 0 0
0.111940 1.544079 3.613954 0 0 0
0.111940 1.544079 3.613954 0 0 0
0.175885 1.516361 3.645276 0 0 0
0.188243 1.529638 3.636363 0 0 0
0.208013 1.378908 3.782041 0 0 0
0.219066 1.356926 3.802599 0 0 0
0.218963 1.480761 3.688627 0 0 0
0.229374 1.384872 3.775810 0 0 0
0.229374 1.384872 3.775810 0 0 0
0.261178 -0.336697 4.273370 0 0 0
0.261823 1.369960 3.793283 0 0 0
0.260410 1.371630 3.791900 0 0 0
0.391540 -0.006417 4.470215 0 0 0
0.423298 -0.001027 4.476106 0 0 0
0.109143 -0.157707 1.464922 0 0 0
0.693850 -0.984956 5.482435 0 0 0
0.800283 -0.654181 5.411231 0 0 0
0.811627 -0.608345 5.418462 0 0 0
0.560228 1.447574 3.742454 0 0 0
0.733033 -0.001872 4.574576 0 0 0
1.097866 -0.667486 5.248810 0 0 0
1.151567 -0.619883 5.202834 0 0 0
1.045809 -0.145945 4.520085 0 0 0
1.222317 -0.436386 4.842819 0 0 0
1.233837 -0.407099 4.797252 0 0 0
1.294194 -0.040587 4.769469 0 0 0
1.257985 1.387929 3.841358 0 0 0
1.328060 1.236157 3.999129 0 0 0
1.237183 1.502212 3.710216 0 0 0
1.356845 1.192505 4.041722 0 0 0
1.324282 1.364685 3.860605 0 0 0
1.336410 1.385231 3.843275 0 0 0
1.462188 1.094058 4.145893 0 0 0
1.706328 0.553619 4.713509 0 0 0
1.706328 0.553619 4.713509 0 0 0
1.496523 1.220607 4.025947 0 0 0
1.463189 1.309578 3.921800 0 0 0
1.463189 1.309578 3.921800 0 0 0
1.671165 0.804955 4.467769 0 0 0
1.656932 0.860160 4.395371 0 0 0
1.656932 0.860160 4.395371 0 0 0
1.469829 1.335960 3.895108 0 0 0
1.457337 1.358483 3.868568 0 0 0
1.990676 0.027859 5.264061 0 0 0
1.395067 1.551786 3.636547 0 0 0
1.411618 1.523358 3.673123 0 0 0
2.073232 -0.082647 5.377371 0 0 0
2.073232 -0.082647 5.377371 0 0 0
1.796609 0.642339 4.644776 0 0 0
1.796609 0.642339 4.644776 0 0 0
1.436748 1.494112 3.716060 0 0 0
1.494494 1.368133 3.858889 0 0 0
1.885933 0.444719 4.840313 0 0 0
1.530797 1.305918 3.927599 0 0 0
1.881082 0.541606 4.726200 0 0 0
2.032846 0.347693 4.944592 0 0 0
2.032846 0.347693 4.944592 0 0 0
2.002773 0.472299 4.817969 0 0 0
2.041676 0.446933 4.846696 0 0 0
2.268364 -0.061360 5.379597 0 0 0
1.915192 0.805700 4.474875 0 0 0
1.739842 1.172044 4.064354 0 0 0
1.833089 0.987433 4.270953 0 0 0
1.845607 0.956727 4.292331 0 0 0
1.663349 1.368733 3.844616 0 0 0
1.991715 0.725271 4.562018 0 0 0
2.002404 0.698737 4.581915 0 0 0
1.889314 0.968488 4.293231 0 0 0
1.889314 0.968488 4.293231 0 0 0
1.854070 1.098501 4.151373 0 0 0
2.246830 0.489697 4.809379 0 0 0
1.909804 1.271201 4.048855 0 0 0
2.051258 1.082075 4.155009 0 0 0
2.196242 0.913620 4.354827 0 0 0
2.477350 0.560642 4.737266 0 0 0
2.519737 0.488161 4.798469 0 0 0
2.417941 0.705232 4.576157 0 0 0
2.342081 0.862634 4.402347 0 0 0
2.650797 0.387227 4.903903 0 0 0
2.749471 0.288471 5.040939 0 0 0
-13.358529 -8.248122 -28.181067 0 0 0
3.204182 -0.316173 5.682175 0 0 0
3.028771 0.035101 5.293420 0 0 0
2.763900 0.471740 4.821777 0 0 0
2.879465 0.351030 4.949776 0 0 0
3.476000 -0.327745 5.693178 0 0 0
3.307357 -0.016918 5.338443 0 0 0
3.907666 -0.798086 6.188770 0 0 0
-1.853845 0.731532 2.978954 0 0 0
-3.162401 0.000273 4.952287 0 0 0
-3.162401 0.000273 4.952287 0 0 0
-2.791847 0.625559 4.416268 0 0 0
-3.359265 -0.464707 5.344032 0 0 0
-2.757942 0.650574 4.391958 0 0 0
-2.977325 0.159642 4.810723 0 0 0
-2.901366 0.300978 4.704774 0 0 0
-2.901366 0.300978 4.704774 0 0 0
-3.103086 -0.093564 5.047482 0 0 0
-3.103086 -0.093564 5.047482 0 0 0
-2.723709 0.595603 4.443716 0 0 0
-2.593475 0.841174 4.222351 0 0 0
-3.173968 -0.271068 5.192028 0 0 0
-2.828455 0.373069 4.640032 0 0 0
-3.074968 -0.130408 5.077508 0 0 0
-2.935305 0.142812 4.844074 0 0 0
-2.874926 0.256436 4.741377 0 0 0
-2.874926 0.256436 4.741377 0 0 0
-3.273692 -0.620040 5.478112 0 0 0
-3.051592 -0.164411 5.106852 0 0 0
-3.023708 -0.211764 5.156842 0 0 0
-2.755281 0.147666 4.845196 0 0 0
-2.446783 0.773412 4.305216 0 0 0
-2.319342 1.001355 4.076705 0 0 0
-2.701495 -0.038563 5.024626 0 0 0
-2.701495 -0.038563 5.024626 0 0 0
-2.836891 -0.506299 5.442618 0 0 0
-2.289202 0.679197 4.385168 0 0 0
-2.764335 -0.421450 5.367868 0 0 0
-2.764335 -0.421450 5.367868 0 0 0
-2.588916 -0.033579 5.029460 0 0 0
-2.588916 -0.033579 5.029460 0 0 0
-2.053650 1.032923 4.060372 0 0 0
-2.778939 -0.604560 5.544384 0 0 0
-2.551772 -0.090350 5.083510 0 0 0
-2.551772 -0.090350 5.083510 0 0 0
-2.621354 -0.375675 5.329575 0 0 0
-1.628480 0.478019 3.315354 0 0 0
-2.507422 -0.157884 5.141720 0 0 0
-1.994713 0.927965 4.159446 0 0 0
-2.490515 -0.283697 5.262404 0 0 0
-1.953290 0.859692 4.221127 0 0 0
-1.869116 0.887363 4.191932 0 0 0
-2.461656 -0.851194 5.771794 0 0 0
-2.329267 -0.657375 5.610427 0 0 0
-2.329267 -0.657375 5.610427 0 0 0
-2.337190 -0.846889 5.775725 0 0 0
-1.527425 1.205139 3.896613 0 0 0
-1.527425 1.205139 3.896613 0 0 0
-4.028694 -2.351381 11.480947 0 0 0
-1.496291 1.153415 3.940708 0 0 0
-2.228787 -1.019816 5.940349 0 0 0
-1.498774 1.075820 4.018892 0 0 0
-1.452355 1.041386 4.047887 0 0 0
-2.119374 -1.174796 6.084259 0 0 0
-1.393921 1.112763 3.982164 0 0 0
-1.419778 0.919214 4.162713 0 0 0
-1.352928 1.026480 4.060669 0 0 0
-1.235111 1.237894 3.861183 0 0 0
-1.282667 1.035014 4.055153 0 0 0
-1.970883 -1.347678 6.247010 0 0 0
-1.302533 0.933367 4.151725 0 0 0
-0.284679 0.129093 1.110840 0 0 0
-1.273897 0.953207 4.129853 0 0 0
-1.273897 0.953207 4.129853 0 0 0
-1.185016 1.146221 3.954372 0 0 0
-1.154041 1.271590 3.835488 0 0 0
-1.135083 1.063307 4.030775 0 0 0
-0.976730 1.060576 4.033808 0 0 0
-0.976730 1.060576 4.033808 0 0 0
-0.937351 1.092224 4.010169 0 0 0
-1.068397 -0.331271 4.652964 0 0 0
-1.096436 0.154805 4.874896 0 0 0
-0.835561 1.298210 3.810072 0 0 0
-0.798318 1.319582 3.781366 0 0 0
-0.747339 1.248154 3.841147 0 0 0
-0.494836 -0.595902 4.496379 0 0 0
-0.481856 -0.439694 4.509324 0 0 0
-0.434013 -0.442837 4.500208 0 0 0
-0.358773 1.249928 3.868324 0 0 0
-0.377240 -1.105154 4.496308 0 0 0
-0.273351 1.387939 3.739293 0 0 0
-0.225827 -0.012816 4.444053 0 0 0
-0.172235 1.324407 3.805848 0 0 0
-0.191840 -1.222471 4.503130 0 0 0
-0.191840 -1.222471 4.503130 0 0 0
-0.187884 -0.877864 4.417002 0 0 0
-0.174080 -0.823679 4.453314 0 0 0
-0.149250 1.291198 3.838427 0 0 0
-0.149250 1.291198 3.838427 0 0 0
-0.159434 -0.735722 4.548551 0 0 0
-0.107692 1.506661 3.636295 0 0 0
-0.052914 -1.069009 4.429300 0 0 0
-0.019004 -1.050867 4.432333 0 0 0
-0.003926 -1.013480 4.437566 0 0 0
0.033052 1.288977 3.856636 0 0 0
0.031508 1.420382 3.727285 0 0 0
0.031508 1.420382 3.727285 0 0 0
0.071778 -1.050034 4.465327 0 0 0
0.087391 1.453765 3.701684 0 0 0
0.119788 0.065894 4.464074 0 0 0
0.183372 -0.417016 4.253944 0 0 0
0.178319 1.433052 3.725599 0 0 0
0.206364 1.336747 3.813918 0 0 0
0.209566 1.503598 3.657330 0 0 0
0.811040 -0.608466 5.416280 0 0 0
0.695502 0.023602 4.624038 0 0 0
-3.275267 -0.910705 -23.136890 0 0 0
1.195548 -0.717772 5.363008 0 0 0
1.255129 -0.395625 4.743943 0 0 0
1.296680 -0.136568 4.758075 0 0 0
1.433953 1.102826 4.148220 0 0 0
1.386001 1.262866 3.979577 0 0 0
1.409387 1.214409 4.023622 0 0 0
1.758634 0.359071 4.901407 0 0 0
1.406316 1.409714 3.812662 0 0 0
1.406316 1.409714 3.812662 0 0 0
1.688460 0.752790 4.503804 0 0 0
1.736932 0.742617 4.525996 0 0 0
2.031057 0.154372 5.137068 0 0 0
1.974624 0.380591 4.926412 0 0 0
1.719163 0.984675 4.278804 0 0 0
2.586267 -0.919196 6.270435 0 0 0
2.670984 -1.080509 6.442462 0 0 0
2.401541 -0.402192 5.735452 0 0 0
2.401541 -0.402192 5.735452 0 0 0
2.080568 0.320232 4.976746 0 0 0
1.553812 1.505799 3.684959 0 0 0
2.164254 0.232913 5.060872 0 0 0
2.347578 -0.123616 5.436481 0 0 0
2.297306 0.439797 4.847363 0 0 0
2.991186 -0.795778 6.166841 0 0 0
2.865616 -0.508501 5.865190 0 0 0
2.490897 0.388869 4.922582 0 0 0
3.047192 -0.433580 5.804534 0 0 0
-0.448474 -0.394796 -0.912273 0 0 0
2.910346 0.330745 4.964420 0 0 0
8.115193 2.653162 12.485701 0 0 0
3.549062 -0.304905 5.641382 0 0 0
3.854959 -0.701577 6.089910 0 0 0
-1.288358 -0.329820 -2.182132 0 0 0
3.689535 -0.408528 5.755093 0 0 0
-14.904229 1.810783 22.646069 0 0 0
-3.592949 -0.597637 5.410987 0 0 0
-3.210659 0.089201 4.860173 0 0 0
-2.768674 0.796804 4.238885 0 0 0
-2.806454 0.717463 4.309967 0 0 0
-2.744971 0.753993 4.291546 0 0 0
-3.658167 -1.014464 5.777975 0 0 0
-2.981044 0.222565 4.761116 0 0 0
-2.922677 0.332864 4.672618 0 0 0
-2.879757 0.368128 4.639680 0 0 0
-2.879757 0.368128 4.639680 0 0 0
-2.848373 0.424842 4.593630 0 0 0
-2.430092 -0.232848 3.215828 0 0 0
-2.812275 0.470388 4.549297 0 0 0
-3.457211 -0.840767 5.658999 0 0 0
-2.825068 0.260770 4.743117 0 0 0
-2.825068 0.260770 4.743117 0 0 0
-2.756204 0.333755 4.692754 0 0 0
-2.702582 0.347940 4.679695 0 0 0
-2.655432 0.303283 4.723001 0 0 0
-3.182967 -0.858804 5.699680 0 0 0
-3.147730 -0.943951 5.793558 0 0 0
-2.793776 -0.364306 5.313901 0 0 0
-2.692676 -0.160169 5.143696 0 0 0
-2.692676 -0.160169 5.143696 0 0 0
-2.046964 1.136345 3.964033 0 0 0
-2.152143 0.908838 4.173049 0 0 0
-2.023346 0.987310 4.101415 0 0 0
-2.531290 -0.202580 5.175298 0 0 0
-2.531290 -0.202580 5.175298 0 0 0
-1.882640 0.611890 3.984011 0 0 0
-2.523799 -0.447879 5.413833 0 0 0
-2.741306 -1.323972 6.169691 0 0 0
-2.741306 -1.323972 6.169691 0 0 0
7.411557 -4.332118 -16.991355 0 0 0
-2.684877 -1.300003 6.164958 0 0 0
-1.786096 0.986446 4.099893 0 0 0
-2.655725 -1.358422 6.219488 0 0 0
-2.363425 -0.603077 5.557257 0 0 0
-1.744644 0.985861 4.099468 0 0 0
-1.830029 0.755271 4.316376 0 0 0
-2.363262 -0.705488 5.647276 0 0 0
-2.612422 -1.437963 6.285367 0 0 0
-1.583488 1.236850 3.855594 0 0 0
-2.249124 -0.563103 5.523901 0 0 0
-1.734965 0.825718 4.254674 0 0 0
-2.284336 -0.717273 5.661324 0 0 0
31.691092 10.754314 -67.604220 0 0 0
-2.224726 -0.692765 5.641641 0 0 0
-2.194319 -0.639510 5.602375 0 0 0
-2.591539 -2.103843 6.878642 0 0 0
-1.539023 0.993582 4.093825 0 0 0
-2.515136 -2.205020 6.976687 0 0 0
-1.455069 0.972955 4.112139 0 0 0
-1.363205 1.168374 3.935993 0 0 0
-2.014466 -0.940110 5.891055 0 0 0
-2.261492 -1.867550 6.705491 0 0 0
-1.271784 1.292388 3.811609 0 0 0
-1.971083 -1.016551 5.963358 0 0 0
-1.337281 1.000552 4.089240 0 0 0
-1.121571 -0.472236 4.679517 0 0 0
-0.914601 1.134579 3.961738 0 0 0
-1.052461 -0.667985 4.854565 0 0 0
-1.052461 -0.667985 4.854565 0 0 0
-0.838584 -0.287554 4.746362 0 0 0
-0.581952 1.455342 3.654734 0 0 0
-0.728460 -1.072402 4.920092 0 0 0
-0.490420 1.421815 3.697228 0 0 0
-0.438410 -0.180564 4.517636 0 0 0
-0.336107 1.498259 3.627312 0 0 0
-0.336107 1.498259 3.627312 0 0 0
-0.319834 1.457183 3.675878 0 0 0
-0.319834 1.457183 3.675878 0 0 0
-0.251733 1.345911 3.780307 0 0 0
-0.232065 1.369138 3.759267 0 0 0
-0.601348 -0.358138 6.275419 0 0 0
-0.229755 1.210770 3.910010 0 0 0
-0.224830 1.305728 3.820884 0 0 0
-0.210474 1.334032 3.793333 0 0 0
-0.145692 -0.972020 4.407596 0 0 0
-0.124337 -0.891564 4.418612 0 0 0
-0.041775 1.509606 3.638399 0 0 0
-0.047139 -0.777333 4.510677 0 0 0
0.010313 1.430676 3.787105 0 0 0
0.016783 1.390130 3.756692 0 0 0
0.051867 1.323793 3.820520 0 0 0
0.117312 1.479875 3.673932 0 0 0
0.157368 -0.608813 4.387603 0 0 0
0.141382 1.442098 3.717159 0 0 0
0.720921 -0.793126 5.354978 0 0 0
0.906537 -0.739551 5.476263 0 0 0
0.906537 -0.739551 5.476263 0 0 0
0.943926 -0.708715 5.436668 0 0 0
1.030084 -0.752882 5.418370 0 0 0
1.107271 -0.709467 5.280642 0 0 0
1.512668 -1.808186 7.042142 0 0 0
0.805803 1.466226 3.501359 0 0 0
1.240053 -0.747234 5.363937 0 0 0
-0.607927 -0.429574 -3.075097 0 0 0
0.910235 -0.103059 4.669407 0 0 0
1.197493 -0.092942 4.612685 0 0 0
1.238224 -0.234525 4.687242 0 0 0
1.274520 1.549794 3.644235 0 0 0
1.484499 1.064372 4.188144 0 0 0
1.289907 1.569093 3.624024 0 0 0
1.528801 1.052807 4.193430 0 0 0
1.528801 1.052807 4.193430 0 0 0
2.626092 -1.652877 6.987420 0 0 0
2.134100 -0.055080 5.362288 0 0 0
2.543026 -0.935207 6.280254 0 0 0
2.189592 -0.077947 5.376035 0 0 0
1.765964 0.973814 4.293023 0 0 0
2.361471 -0.242878 5.566002 0 0 0
1.978704 0.736789 4.559981 0 0 0
1.663196 1.429222 3.771650 0 0 0
1.753503 1.273175 3.958967 0 0 0
2.481910 -0.065797 5.392909 0 0 0
2.481910 -0.065797 5.392909 0 0 0
3.134179 -1.112668 6.513525 0 0 0
3.047020 -0.916986 6.304238 0 0 0
2.890889 -0.345808 5.700051 0 0 0
3.540478 -1.056229 6.466809 0 0 0
3.240738 -0.482572 5.853864 0 0 0
3.077993 -0.163706 5.504868 0 0 0
2.871615 0.245665 5.068665 0 0 0
3.997404 -0.899989 6.282431 0 0 0
-3.004046 0.377321 4.615705 0 0 0
-2.538442 0.672187 4.366070 0 0 0
-3.225121 -0.781874 5.637460 0 0 0
-2.707612 0.260259 4.755676 0 0 0
-2.260425 0.978545 4.105388 0 0 0
-3.025067 -0.903539 5.764586 0 0 0
-2.257097 0.761145 4.312268 0 0 0
-2.089962 1.022392 4.066390 0 0 0
-2.568195 -0.370899 5.339121 0 0 0
-2.853395 -1.099307 5.967360 0 0 0
-2.853395 -1.099307 5.967360 0 0 0
-2.002137 0.863046 4.216894 0 0 0
-1.813590 1.117151 3.969999 0 0 0
-1.981469 0.721819 4.351342 0 0 0
-1.981469 0.721819 4.351342 0 0 0
-2.777393 -1.414545 6.235543 0 0 0
-1.729938 0.946211 4.143341 0 0 0
-1.714041 0.901855 4.178196 0 0 0
-1.570413 1.200571 3.896493 0 0 0
-2.439757 -1.473576 6.328771 0 0 0
-1.550303 1.069246 4.021656 0 0 0
-2.359340 -1.678907 6.528189 0 0 0
-1.376280 1.270111 3.832188 0 0 0
-1.422012 1.078539 4.011760 0 0 0
-1.363461 0.966729 4.118678 0 0 0
-1.226109 1.020300 4.072211 0 0 0
-0.890345 0.134956 4.783154 0 0 0
-0.800312 -0.206451 4.741419 0 0 0
-0.789532 -0.281401 4.749786 0 0 0
-0.775561 0.337438 4.729765 0 0 0
-0.358920 -1.371944 4.484998 0 0 0
-0.281396 1.449831 3.681068 0 0 0
-0.270731 0.047640 4.382446 0 0 0
-0.230458 1.430363 3.691853 0 0 0
-0.194409 1.368222 3.766797 0 0 0
-0.191752 -0.971573 4.410698 0 0 0
-0.168824 -1.162734 4.471642 0 0 0
0.138460 -0.656815 4.427411 0 0 0
0.138460 -0.656815 4.427411 0 0 0
0.138466 -0.407828 4.248342 0 0 0
0.173486 0.176708 4.407238 0 0 0
0.190778 -0.649158 4.415272 0 0 0
0.329464 -0.030656 4.500559 0 0 0
0.382562 -0.532386 4.356194 0 0 0
1.052337 -1.630951 6.832420 0 0 0
0.711164 0.009161 4.581657 0 0 0
0.907884 -0.742251 5.475493 0 0 0
0.907884 -0.742251 5.475493 0 0 0
1.225701 -1.571914 6.769043 0 0 0
0.770672 1.520777 3.682212 0 0 0
1.170236 -0.657551 5.260222 0 0 0
1.170236 -0.657551 5.260222 0 0 0
0.880923 1.549832 3.655389 0 0 0
1.269198 0.007411 4.732277 0 0 0
125.053761 -44.678526 477.678046 0 0 0
2.650847 -1.568419 6.923964 0 0 0
2.739995 -1.738314 7.112097 0 0 0
2.687399 -0.696236 6.050071 0 0 0
1.801421 1.192483 4.049006 0 0 0
1.856450 1.106021 4.145265 0 0 0
1.884095 1.054512 4.193495 0 0 0
2.433496 0.005066 5.325810 0 0 0
2.433496 0.005066 5.325810 0 0 0
2.653144 -0.367629 5.721854 0 0 0
2.653144 -0.367629 5.721854 0 0 0
2.544358 -0.058646 5.395002 0 0 0
2.544358 -0.058646 5.395002 0 0 0
2.607330 -0.178393 5.512766 0 0 0
2.607330 -0.178393 5.512766 0 0 0
2.067406 0.903175 4.358264 0 0 0
2.714015 -0.357679 5.702932 0 0 0
2.570402 0.033881 5.299930 0 0 0
3.082046 -0.856208 6.253015 0 0 0
2.526706 0.199562 5.105417 0 0 0
2.637025 0.023934 5.309718 0 0 0
2.390739 0.556991 4.735513 0 0 0
2.390739 0.556991 4.735513 0 0 0
2.639111 0.134035 5.198148 0 0 0
3.549436 -1.368632 6.786195 0 0 0
3.389704 -1.017404 6.426827 0 0 0
3.389704 -1.017404 6.426827 0 0 0
3.200878 -0.658861 6.021745 0 0 0
3.200878 -0.658861 6.021745 0 0 0
3.622343 -1.343199 6.770672 0 0 0
3.082070 -0.401051 5.765144 0 0 0
3.082070 -0.401051 5.765144 0 0 0
3.381876 -0.825989 6.220288 0 0 0
3.172781 -0.348986 5.697832 0 0 0
2.967229 0.048861 5.263298 0 0 0
-2.941197 0.490615 4.519795 0 0 0
-2.435762 0.878097 4.191291 0 0 0
-2.302804 0.941321 4.142863 0 0 0
-2.302804 0.941321 4.142863 0 0 0
-3.223574 -1.176858 5.966829 0 0 0
-2.951358 -0.845880 5.724866 0 0 0
-2.951358 -0.845880 5.724866 0 0 0
-2.110215 0.948633 4.135929 0 0 0
-2.049064 1.086381 4.010948 0 0 0
-2.854917 -0.802600 5.710072 0 0 0
-1.980536 0.938971 4.149979 0 0 0
-1.980536 0.938971 4.149979 0 0 0
-1.860440 0.773284 4.313689 0 0 0
-2.768663 -1.695480 6.487280 0 0 0
-2.066991 -0.670278 5.660475 0 0 0
-1.198109 1.261241 3.841188 0 0 0
-1.835796 -1.071171 6.027288 0 0 0
-1.743143 -1.552561 6.467094 0 0 0
-1.311049 -0.534794 4.804091 0 0 0
-1.206203 -0.879400 5.414794 0 0 0
-0.890593 0.135147 4.781247 0 0 0
-0.407383 -0.436131 3.546521 0 0 0
-0.566417 1.340817 3.779958 0 0 0
-0.661374 -0.950621 4.826830 0 0 0
-0.418096 1.158145 3.943070 0 0 0
-0.453040 -0.246796 4.552404 0 0 0
-0.324738 1.190584 3.919454 0 0 0
-0.127559 1.249373 3.875269 0 0 0
-0.100387 -1.280436 4.453343 0 0 0
0.035834 -0.851494 4.563406 0 0 0
0.089402 0.301882 4.495004 0 0 0
0.209849 -0.977055 4.697539 0 0 0
0.393848 0.021741 4.478130 0 0 0
0.375414 1.478947 3.697551 0 0 0
0.406405 1.415664 3.771651 0 0 0
0.720196 0.010711 4.605668 0 0 0
0.785689 0.180331 4.685887 0 0 0
0.919993 -0.123667 4.488006 0 0 0
1.872301 -1.756210 7.037222 0 0 0
1.874086 -1.757096 7.041636 0 0 0
1.874447 0.471897 4.813571 0 0 0
3.051644 -2.335155 7.740226 0 0 0
1.868397 0.671207 4.609371 0 0 0
2.187794 0.041881 5.261701 0 0 0
2.187794 0.041881 5.261701 0 0 0
2.312606 -0.164529 5.481438 0 0 0
2.057741 0.759333 4.530124 0 0 0
2.486844 0.038424 5.290351 0 0 0
2.486844 0.038424 5.290351 0 0 0
2.138779 0.718655 4.560625 0 0 0
2.138779 0.718655 4.560625 0 0 0
1.961825 1.104739 4.146650 0 0 0
1.897838 0.379200 4.016040 0 0 0
2.369246 0.348072 4.957965 0 0 0
2.369246 0.348072 4.957965 0 0 0
2.464261 0.205826 5.102098 0 0 0
2.610944 -0.040218 5.383520 0 0 0
2.294336 0.713986 4.570970 0 0 0
2.294336 0.713986 4.570970 0 0 0
2.452113 0.443485 4.840973 0 0 0
2.452113 0.443485 4.840973 0 0 0
3.774105 -1.899209 7.357727 0 0 0
2.350443 0.726336 4.543640 0 0 0
2.350443 0.726336 4.543640 0 0 0
3.096866 -0.600024 5.962003 0 0 0
3.096866 -0.600024 5.962003 0 0 0
2.836587 -0.092175 5.439907 0 0 0
2.836587 -0.092175 5.439907 0 0 0
2.789899 -0.004980 5.357336 0 0 0
2.789899 -0.004980 5.357336 0 0 0
2.442211 0.582251 4.698114 0 0 0
2.442211 0.582251 4.698114 0 0 0
2.952507 -0.166401 5.517697 0 0 0
2.892112 -0.066088 5.403571 0 0 0
2.823381 0.055807 5.276738 0 0 0
2.540842 0.540118 4.748912 0 0 0
3.666927 0.546046 6.624391 0 0 0
3.858846 -1.712546 7.137974 0 0 0
2.927668 0.052936 5.302645 0 0 0
2.927668 0.052936 5.302645 0 0 0
4.793908 -1.693187 7.186392 0 0 0
-3.982259 -1.615970 6.204251 0 0 0
-3.423167 -0.862854 5.662902 0 0 0
-3.157665 -1.288993 6.070796 0 0 0
-3.114713 -1.182672 6.031220 0 0 0
-2.754791 -1.015588 5.905808 0 0 0
-1.934243 -1.251177 6.170406 0 0 0
-0.950837 1.221702 3.881809 0 0 0
-0.689089 1.447034 3.830956 0 0 0
-0.896644 0.001655 4.729053 0 0 0
-0.698225 1.274794 3.828384 0 0 0
-0.827173 -0.723567 4.743110 0 0 0
-0.632519 1.316164 3.786493 0 0 0
-0.632519 1.316164 3.786493 0 0 0
-0.205912 0.381680 1.453560 0 0 0
-0.526441 1.382473 3.729578 0 0 0
-0.495227 1.193453 3.913433 0 0 0
-0.417630 1.504724 3.622571 0 0 0
-0.483702 -0.162972 4.523745 0 0 0
-0.243061 -2.967641 7.990384 0 0 0
-0.126729 -1.197298 4.418270 0 0 0
0.202491 -0.450765 7.771085 0 0 0
-0.731178 -0.545721 3.880006 0 0 0
1.375001 -1.552765 6.764076 0 0 0
0.767383 1.520678 3.677796 0 0 0
1.512355 -1.501525 6.695304 0 0 0
1.262914 -0.322928 4.741666 0 0 0
1.861785 -1.404740 6.644913 0 0 0
1.073015 1.593261 3.773421 0 0 0
2.209024 -1.310701 6.630686 0 0 0
2.441369 -1.214774 6.473673 0 0 0
2.879836 -2.229115 7.610025 0 0 0
1.483397 1.355717 3.862306 0 0 0
1.768855 0.818610 4.452380 0 0 0
1.609050 1.256692 3.978788 0 0 0
1.928817 0.571302 4.714435 0 0 0
2.342958 0.269816 5.047097 0 0 0
2.342958 0.269816 5.047097 0 0 0
2.150336 0.813925 4.462450 0 0 0
2.236593 0.684763 4.599138 0 0 0
2.236593 0.684763 4.599138 0 0 0
2.297283 0.816966 4.457955 0 0 0
-2.846812 -2.979612 -5.778183 0 0 0
-2.544259 0.438426 4.608475 0 0 0
-1.308274 1.023830 4.068712 0 0 0
-2.300835 -2.611476 7.334092 0 0 0
-1.282453 -0.305282 4.695938 0 0 0
-1.264087 0.053982 5.010326 0 0 0
-1.383397 -2.299781 7.218532 0 0 0
-0.359310 -0.429478 4.556310 0 0 0
-0.038247 -0.860750 4.566618 0 0 0
0.503096 -0.047903 4.586266 0 0 0
1.182781 -0.813063 5.335859 0 0 0
1.225862 -0.132677 4.678363 0 0 0
2.283817 -2.024408 7.335957 0 0 0
1.701979 0.937511 4.343388 0 0 0
1.882162 0.791681 4.477457 0 0 0
2.432947 -0.482946 5.785842 0 0 0
1.944510 0.683559 4.584073 0 0 0
2.033382 0.579631 4.707481 0 0 0
1.961771 0.879885 4.408390 0 0 0
1.961771 0.879885 4.408390 0 0 0
2.084687 0.651328 4.642498 0 0 0
2.084687 0.651328 4.642498 0 0 0
-3.484342 -2.094524 6.728992 0 0 0
-2.431621 -1.500582 6.348928 0 0 0
-2.178441 -0.819858 5.739321 0 0 0
-2.296608 -2.180865 6.967720 0 0 0
-2.161006 -2.421626 7.252879 0 0 0
-1.423954 -0.312061 4.761614 0 0 0
-1.700130 -2.950153 7.742462 0 0 0
-0.342489 -0.194611 4.560736 0 0 0
-0.288944 -0.324705 4.623032 0 0 0
-0.634240 -1.238313 10.286224 0 0 0
-0.125234 0.417616 4.640844 0 0 0
0.001322 -0.022615 4.590906 0 0 0
0.680231 0.375318 4.647361 0 0 0
0.834678 -0.249933 4.679766 0 0 0
2.694148 -1.916469 7.300502 0 0 0
1.580677 1.110875 4.133607 0 0 0
1.725908 1.193365 4.012126 0 0 0
-0.920399 -0.956370 -1.894383 0 0 0
-3.174046 -0.566443 5.469035 0 0 0
-2.555575 -1.842776 6.698730 0 0 0
-0.722833 -0.303481 4.792235 0 0 0
-0.524059 -0.888728 4.830855 0 0 0
-0.036938 0.282527 4.588323 0 0 0
0.643269 -0.132336 4.773929 0 0 0
0.733973 0.247711 4.644300 0 0 0
2.421287 -1.040194 6.534090 0 0 0
3.293284 1.991687 5.604207 0 0 0
-2.528728 0.445913 4.754067 0 0 0
-1.090870 0.235680 4.812241 0 0 0
0.157084 0.136384 4.703993 0 0 0
0.507691 0.093302 4.520218 0 0 0
-0.315050 -0.261652 1.092525 0 0 0
-0.517840 -0.631385 4.769180 0 0 0
-0.517840 -0.631385 4.769180 0 0 0
-0.514030 0.407648 4.816688 0 0 0
0.940389 -0.220859 4.729347 0 0 0
-2.363864 0.408238 4.682593 0 0 0
-0.349436 -0.024322 4.416511 0 0 0
-0.001812 -0.501037 4.484922 0 0 0
0.873833 0.009293 5.111262 0 0 0
2.064308 -0.810520 6.279425 0 0 0
-1.873145 0.336223 5.066807 0 0 0
0.770335 0.972781 4.275401 0 0 0
